# .PCD v0.7 - Point Cloud Data file format
VERSION 0.7
FIELDS x y z intensity t reflectivity ring ambient range
SIZE 4 4 4 4 4 2 1 2 4
TYPE F F F F U U U U U
COUNT 1 1 1 1 1 1 1 1 1
WIDTH 770
HEIGHT 1
VIEWPOINT 0 0 0 1 0 0 0
POINTS 770
DATA ascii
6.7830229 7.7450156 -2.1581917 662 37296530 7315 55 338 10527
6.8420954 7.7164221 -2.1619494 730 37394310 8083 55 355 10545
6.8906202 7.6757503 -2.1623669 679 37492820 7533 55 329 10547
6.9638963 7.6622767 -2.1707175 650 37590100 7265 55 333 10587
7.0200496 7.6294789 -2.1736403 663 37687310 7417 55 342 10601
7.0407362 7.558351 -2.1654983 643 37784540 7160 55 365 10562
7.0775881 7.5050459 -2.1625757 739 37882530 8188 55 353 10548
7.151866 7.4911885 -2.1713438 635 37979810 7111 55 337 10590
7.2255597 7.4759984 -2.1799033 642 38078250 7226 55 312 10631
7.3205357 7.4818559 -2.1949344 666 38175480 629 55 355 10703
7.3848863 7.4555588 -2.2005708 675 38272340 4179 55 354 10730
7.4284167 7.4080334 -2.1999447 658 38369560 2855 55 334 10727
7.4382029 7.3273091 -2.1892977 631 38466840 3000 55 327 10676
7.4213481 7.221508 -2.1709263 615 38564050 6869 55 380 10588
7.471159 7.1812577 -2.1725965 617 38662910 3154 55 358 10596
7.4675679 7.0901604 -2.1586092 649 38760140 7149 55 363 10529
7.525197 7.0575881 -2.1627843 685 38857980 7599 55 357 10549
7.5733819 7.0159345 -2.1642458 680 38954580 7545 55 342 10556
7.6184525 6.971314 -2.1648722 675 39051550 7492 55 347 10559
7.6610842 6.9244366 -2.1648722 613 39149330 5161 55 357 10559
7.6961327 6.8707852 -2.1627843 599 39246360 5530 55 350 10549
7.7557492 6.8389583 -2.1677947 637 39342400 5758 55 339 10573
7.8078904 6.8002338 -2.1707175 623 39440180 5661 55 341 10587
7.8709679 6.7706947 -2.1767716 677 39537250 6529 55 313 10616
7.9339762 6.7406363 -2.1828258 657 39636260 3844 55 317 10645
7.976685 6.6930847 -2.1832435 680 39734060 5331 55 314 10647
8.0055552 6.6340299 -2.1799033 647 39831540 6478 55 331 10631
8.0461102 6.5847836 -2.1799033 628 39929680 7067 55 311 10631
8.1228695 6.5647993 -2.189924 714 40027410 6411 55 336 10679
8.1530609 6.5069032 -2.1872098 636 40125870 6818 55 310 10666
8.2028179 6.4646249 -2.189924 730 40223640 4469 55 362 10679
8.2631674 6.4303899 -2.1955605 666 40320770 3255 55 342 10706
8.3102217 6.3855262 -2.1976483 663 40417630 5672 55 350 10716
8.3531418 6.3373713 -2.1986921 665 40515920 5862 55 337 10721
8.3190804 6.2314658 -2.1792769 676 40613350 7612 55 365 10628
8.4232054 6.2291541 -2.1968131 633 40711540 7239 55 357 10712
8.4889116 6.1975384 -2.2041199 634 40808470 7287 55 358 10747
8.5275726 6.1459069 -2.2043288 667 40905430 7696 55 315 10748
8.6089487 6.124651 -2.2158108 689 41004810 8009 55 322 10803
8.677578 6.0936337 -2.2239525 731 41102240 8550 55 310 10842
8.745347 6.0614467 -2.2318857 731 41199510 8614 55 276 10880
8.8485594 6.0529542 -2.2490044 705 41296940 8432 55 267 10962
8.943079 6.0374022 -2.2638268 678 41395330 8214 55 261 11033
9.0190201 6.0084443 -2.2738476 542 41492760 6646 55 208 11081
9.0900383 5.9755569 -2.2826157 585 41589470 7215 55 212 11123
9.1938095 5.9633136 -2.2997344 542 41687610 6794 55 213 11205
9.2804718 5.9389486 -2.312469 511 41786730 6446 55 245 11266
9.3630447 5.9111328 -2.3241599 455 41884370 5821 55 224 11322
9.4306822 5.873219 -2.332093 472 41981580 6057 55 189 11360
9.4840403 5.825994 -2.336477 403 42079940 5179 55 250 11381
9.5003729 5.7560339 -2.3316755 368 42176950 4726 55 196 11358
9.5019331 5.6775651 -2.3233249 391 42274130 4983 55 231 11318
9.5197401 5.6092248 -2.3191495 382 42371190 4840 55 207 11298
9.5328398 5.5384235 -2.3139305 459 42469500 5798 55 208 11273
9.5276089 5.4574637 -2.3043272 202 42567270 2539 55 182 11227
9.4893866 5.3585019 -2.2867908 360 42664650 4437 55 194 11143
9.5161057 5.2968454 -2.2853296 317 42763110 3923 55 190 11136
9.5552864 5.2421193 -2.2869997 377 42860790 4660 55 199 11144
9.5898523 5.1847863 -2.287626 371 42957970 4576 55 200 11147
9.6119919 5.1207876 -2.2853296 388 43056060 4792 55 182 11136
9.6553535 5.0680771 -2.2882524 406 43152700 5041 55 182 11150
9.6593399 4.9948106 -2.2817805 384 43249630 4725 55 211 11119
9.6410074 4.9105878 -2.2700896 373 43346070 4546 55 180 11063
9.6456079 4.8386207 -2.2640355 395 43443500 4788 55 201 11034
9.6681013 4.7758794 -2.2623653 368 43542260 4455 55 174 11026
9.6761169 4.7061996 -2.257355 390 43639690 4714 55 176 11002
9.7056932 4.647162 -2.2575638 358 43736920 4304 55 166 11003
9.7172174 4.5795984 -2.2535973 345 43835930 4130 55 191 10984
9.7069874 4.5021915 -2.2446203 357 43932140 4253 55 202 10941
9.73176 4.4413276 -2.243994 367 44028850 4357 55 209 10938
9.7525835 4.3787265 -2.2425327 361 44127340 4293 55 196 10931
9.74259 4.3026023 -2.2339733 397 44224770 4687 55 203 10890
9.7598372 4.2388453 -2.2318857 389 44322510 4573 55 194 10880
9.7784672 4.175807 -2.2302155 390 44420900 4602 55 190 10872
9.7822647 4.1066418 -2.2252052 392 44518030 4582 55 188 10848
9.8145103 4.0495262 -2.2268753 433 44614690 5084 55 189 10856
9.8301105 3.985554 -2.2247877 414 44712500 4851 55 185 10846
9.8389359 3.9190092 -2.2212386 429 44809550 5000 55 181 10829
9.8318319 3.8464479 -2.2141407 444 44905120 5140 55 218 10795
9.8205585 3.7727187 -2.2062075 432 45002400 4992 55 177 10757
9.8316278 3.7079027 -2.2034936 443 45100690 5094 55 200 10744
9.8404369 3.6424139 -2.2003622 409 45196390 4689 55 191 10729
9.8497324 3.5772905 -2.1974394 459 45295250 5237 55 223 10715
9.8337269 3.5033269 -2.18888 435 45393340 4950 55 184 10674
9.8458052 3.4396963 -2.1867924 405 45490100 4575 55 197 10664
9.8583994 3.3763664 -2.1849136 442 45588860 5008 55 216 10655
9.8362837 3.3014946 -2.1753104 416 45686390 4643 55 166 10609
9.832202 3.2331333 -2.1698825 420 45781870 4697 55 181 10583
9.8378916 3.1682453 -2.1667509 379 45881490 4216 55 178 10568
9.8403587 3.1025269 -2.1629932 388 45978100 4300 55 190 10550
9.8152895 3.0285335 -2.1531813 384 46075430 4219 55 178 10503
9.8187084 2.9637282 -2.1498411 374 46173420 4105 55 208 10487
9.8395224 2.9042566 -2.1504672 390 46270330 4281 55 228 10490
9.8665533 2.8465395 -2.152555 410 46367960 4492 55 177 10500
9.8744211 2.7832918 -2.1504672 395 46466570 4328 55 196 10490
9.855484 2.7127857 -2.1425343 355 46564910 3860 55 194 10452
9.8549433 2.6476936 -2.1387763 385 46661520 4166 55 159 10434
9.8728962 2.587671 -2.139194 378 46759670 4088 55 189 10436
9.8649006 2.520988 -2.1339748 391 46857250 4221 55 182 10411
9.8412762 2.4507182 -2.1254156 396 46954470 4228 55 208 10370
9.8399706 2.3863673 -2.1218665 375 47052270 4004 55 170 10353
9.8477659 2.3243723 -2.1204052 399 47149940 4265 55 178 10346
9.8608894 2.263685 -2.1201963 398 47248090 4232 55 182 10345
9.8564587 2.1990893 -2.1162298 395 47345210 4193 55 201 10326
9.8401375 2.1321473 -2.1097581 387 47442370 4074 55 183 10295
9.8300657 2.0668979 -2.1047478 377 47540330 3958 55 202 10271
9.8281898 2.0036111 -2.1016161 399 47637380 4187 55 224 10256
9.8239889 1.9400464 -2.0980673 389 47734750 4049 55 205 10239
9.7963238 1.872201 -2.0895078 251 47833120 2593 55 189 10198
9.7855091 1.807968 -2.0847063 79 47931260 804 55 154 10175
9.7993069 1.7484068 -2.0853326 247 48028590 2533 55 164 10178
9.8320169 1.6920633 -2.0901341 335 48126780 3458 55 196 10201
9.8123064 1.6267424 -2.0836625 325 48224360 3353 55 215 10170
9.8182402 1.565888 -2.0828273 374 48322030 3857 55 209 10166
9.8315296 1.5062077 -2.0836625 396 48419160 4069 55 190 10170
9.8192997 1.4427248 -2.0790696 371 48514790 3794 55 179 10148
9.8240938 1.3819023 -2.0782344 407 48612580 4171 55 189 10144
9.8275423 1.320945 -2.0771906 425 48709240 4362 55 195 10139
9.8267317 1.2594998 -2.0753119 409 48808000 4179 55 194 10130
9.8100061 1.1962188 -2.0700927 421 48905330 4284 55 172 10105
9.8035603 1.1344283 -2.0671699 372 49002340 3782 55 185 10091
9.8015871 1.0732946 -2.0652912 399 49099820 4022 55 153 10082
9.7885332 1.0111216 -2.0611157 426 49197960 4298 55 174 10062
9.7994194 0.95151424 -2.0621595 433 49295800 4371 55 188 10067
9.8157873 0.8923431 -2.064456 407 49392510 4119 55 168 10078
9.804512 0.83069277 -2.0609069 412 49489470 4143 55 198 10061
9.7801752 0.7682178 -2.0546441 393 49587720 3936 55 205 10031
9.7866554 0.70833468 -2.0550616 367 49686180 3668 55 186 10033
9.783987 0.64781868 -2.0536003 403 49784170 4024 55 193 10026
9.776063 0.58706856 -2.051095 424 49880930 4233 55 224 10014
9.7785053 0.52701998 -2.0508862 426 49978140 4255 55 177 10013
9.7463884 0.46532822 -2.0433707 381 50076090 3775 55 203 9977
9.7705564 0.40641278 -2.0479636 409 50172400 4070 55 219 9999
9.781662 0.34676674 -2.0498424 427 50270540 4251 55 188 10008
9.7669878 0.28625256 -2.0462935 386 50367450 3834 55 218 9991
9.7460728 0.22579511 -2.0414917 424 50467030 4195 55 216 9968
9.7531424 0.1660905 -2.0427444 410 50563890 4051 55 203 9974
9.7549553 0.10625396 -2.0429533 425 50661510 4222 55 195 9975
9.758358 0.046410888 -2.0435796 363 50760370 3606 55 207 9978
9.7340097 -0.01343454 -2.0383604 361 50856220 3558 55 209 9953
9.7572145 -0.073335402 -2.0433707 414 50954680 4103 55 213 9977
9.7497358 -0.1331103 -2.0419095 378 51052310 3732 55 180 9970
9.7409134 -0.19277693 -2.0402393 378 51149780 3726 55 173 9962
9.7385693 -0.25251716 -2.0400305 396 51248130 3902 55 196 9961
9.7290173 -0.31201705 -2.0383604 384 51344020 3787 55 191 9953
9.7327824 -0.37193087 -2.039613 390 51442480 3860 55 206 9959
9.73911 -0.43203238 -2.0414917 402 51539590 3980 55 173 9968
9.7216253 -0.49104357 -2.0383604 379 51636870 3739 55 180 9953
9.7125711 -0.55035365 -2.0371077 405 51733830 3980 55 206 9947
9.697299 -0.60920376 -2.0346026 450 51830860 4436 55 177 9935
9.7021589 -0.66929871 -2.0364814 413 51928330 4076 55 206 9944
9.6861668 -0.72793901 -2.0339763 406 52025760 3998 55 199 9932
9.6571493 -0.78537887 -2.0287571 421 52123600 4114 55 206 9907
9.6307144 -0.84274554 -2.0241644 433 52220410 4214 55 204 9885
9.6312046 -0.9023695 -2.0254169 429 52319470 4172 55 186 9891
9.6245136 -0.96135134 -2.0252082 414 52416230 4035 55 172 9890
9.6048183 -1.018945 -2.0222855 436 52513560 4236 55 201 9876
9.6119919 -1.0793866 -2.0252082 452 52610840 4395 55 190 9890
9.5818796 -1.135584 -2.0201979 447 52708360 4344 55 196 9866
9.5863762 -1.1958076 -2.0227029 472 52807590 4583 55 153 9878
9.5866165 -1.2556213 -2.0243731 745 52903840 7263 55 210 9886
9.5777626 -1.3142872 -2.0241644 966 53001660 9416 55 274 9885
9.5424118 -1.3691438 -2.0183189 1016 53098440 9852 55 338 9857
9.5260944 -1.4265112 -2.0166488 1086 53196730 10504 55 370 9849
9.5210266 -1.4855381 -2.0174839 554 53294680 5360 55 217 9853
9.5165596 -1.544713 -2.0185277 442 53391440 4289 55 198 9858
9.4798994 -1.5985258 -2.0126822 466 53490300 4486 55 197 9830
9.4554625 -1.6541367 -2.0095508 464 53587410 4443 55 209 9815
9.4364748 -1.710554 -2.0076718 464 53684630 4432 55 233 9806
9.4036932 -1.7642772 -2.0028703 462 53782210 4396 55 197 9783
9.3869305 -1.8208271 -2.0016177 434 53880560 4123 55 200 9777
9.3803759 -1.8793501 -2.0026615 468 53977680 4463 55 184 9782
9.3830338 -1.9398403 -2.0057931 442 54075430 4234 55 208 9797
9.3527813 -1.9935051 -2.0018265 459 54173000 4359 55 244 9778
9.3480148 -2.0525324 -2.0034966 505 54270210 4817 55 232 9786
9.3400145 -2.1109295 -2.0045404 504 54368210 4821 55 235 9791
9.3106918 -2.1644361 -2.0009913 473 54465330 4502 55 201 9774
9.2981873 -2.2217519 -2.0012002 495 54564190 4701 55 225 9775
9.2900791 -2.2801609 -2.0024529 486 54661250 4632 55 206 9781
9.2806549 -2.338315 -2.0034966 526 54758380 5030 55 206 9786
9.2396202 -2.3883653 -1.9976511 521 54855290 4941 55 232 9758
9.2106113 -2.4412565 -1.9945197 508 54953440 4806 55 204 9743
9.192627 -2.4969571 -1.9938934 464 55050810 4375 55 214 9740
9.1799603 -2.554101 -1.9945197 487 55147670 4596 55 220 9743
9.1725807 -2.6127906 -1.9963986 507 55244800 4811 55 249 9752
9.1601315 -2.6701176 -1.9972336 523 55341460 4941 55 217 9756
9.1332664 -2.7232001 -1.9949372 510 55439190 4825 55 215 9745
9.1098366 -2.7771938 -1.9934758 521 55536730 4920 55 254 9738
9.0907574 -2.8324568 -1.9930583 519 55635740 4891 55 227 9736
9.0806618 -2.8905559 -1.9947284 513 55732350 4852 55 232 9744
9.0534544 -2.9431965 -1.9926407 483 55831160 4568 55 214 9734
8.9962397 -2.9857574 -1.9838727 316 55927710 2953 55 196 9692
9.0518541 -3.0659938 -2.0005739 367 56024220 3477 55 215 9772
9.0569048 -3.1297801 -2.0060017 596 56122730 5702 55 243 9798
9.0476761 -3.1888683 -2.0082982 559 56219390 5365 55 279 9809
9.0334616 -3.2463076 -2.0095508 505 56318030 4841 55 294 9815
9.0271473 -3.3067193 -2.0126822 505 56414440 4857 55 270 9830
9.0341749 -3.3723044 -2.0189452 500 56512780 4840 55 259 9860
9.0087423 -3.4259357 -2.0179014 445 56610680 4311 55 245 9855
8.9638405 -3.4719663 -2.0124736 428 56708770 4117 55 207 9829
8.9296312 -3.5218797 -2.0095508 452 56805730 4325 55 243 9815
8.8996849 -3.5733256 -2.0076718 591 56903480 5660 55 276 9806
8.8404732 -3.6127012 -1.9991125 572 57000440 5422 55 279 9765
8.736866 -3.6330895 -1.9803237 591 57097710 5510 55 273 9675
8.6936932 -3.6778677 -1.975522 606 57195760 5616 55 251 9652
8.6233492 -3.710659 -1.9644575 645 57292770 5921 55 269 9599
8.5448685 -3.7391984 -1.951514 640 57391480 5787 55 313 9537
8.4592152 -3.7637355 -1.9369005 628 57488490 5605 55 292 9467
8.4065561 -3.8022723 -1.9300113 707 57586080 6269 55 314 9434
8.3119793 -3.8211102 -1.9133101 804 57682840 6999 55 357 9354
8.2352114 -3.8472087 -1.9007841 810 57781180 6987 55 362 9294
8.1822939 -3.8838305 -1.8938948 829 57878050 7083 55 373 9261
8.1679993 -3.9386346 -1.8961912 848 57975470 7276 55 302 9272
8.1287479 -3.9813669 -1.8926423 864 58073320 7372 55 275 9255
8.0560036 -4.0072184 -1.8811601 844 58171090 7120 55 325 9200
7.9893618 -4.0354137 -1.8711394 855 58269650 7139 55 316 9152
7.9244189 -4.0638351 -1.8615363 851 58366360 7039 55 360 9106
7.8689718 -4.0965791 -1.8542295 831 58464210 6818 55 378 9071
7.8246641 -4.1347346 -1.8496366 856 58561120 6999 55 367 9049
7.7862182 -4.1757364 -1.8465052 871 58659980 7094 55 320 9034
7.6934447 -4.1869755 -1.8302214 784 58756170 6280 55 357 8956
7.6581912 -4.2289033 -1.8279251 833 58854530 6658 55 339 8945
7.6397781 -4.2801147 -1.8298039 834 58952410 6673 55 322 8954
7.5802107 -4.3080688 -1.8216621 826 59050100 6546 55 391 8915
7.5485501 -4.3515687 -1.8204095 887 59147680 7032 55 344 8909
7.4676723 -4.3662176 -1.8070486 862 59243520 6724 55 405 8845
7.4365349 -4.4094629 -1.8060046 823 59341500 6414 55 385 8840
7.3908992 -4.4439244 -1.8014119 802 59439390 6218 55 384 8818
7.3409457 -4.4754477 -1.7957752 831 59537490 6407 55 340 8791
7.2842288 -4.5024128 -1.7884684 845 59635160 6464 55 338 8756
7.2349176 -4.533524 -1.7830405 885 59733110 6729 55 361 8730
7.2028365 -4.5752101 -1.7819967 878 59830290 6659 55 264 8725
7.1590037 -4.6092625 -1.7780302 848 59927760 6410 55 388 8706
7.1060152 -4.6370716 -1.7717671 859 60025810 6456 55 386 8676
7.0627451 -4.670877 -1.7680094 853 60123180 6361 55 399 8658
7.0185156 -4.7037821 -1.7640429 879 60220910 6541 55 397 8639
6.9725308 -4.7352219 -1.7596588 825 60317170 6119 55 370 8618
6.911922 -4.7562971 -1.7515169 877 60415760 6431 55 365 8579
6.8826079 -4.7986183 -1.7515169 890 60513410 6533 55 381 8579
6.8410521 -4.8322968 -1.7483854 883 60610980 6453 55 355 8564
6.79457 -4.8622317 -1.7440014 869 60708040 6317 55 390 8543
6.7511463 -4.8940744 -1.7404524 885 60805420 6418 55 364 8526
6.7099533 -4.9273038 -1.7375296 864 60904330 6228 55 400 8512
6.6780243 -4.9672155 -1.7371122 884 61001610 6393 55 390 8510
6.641171 -5.0033903 -1.735442 916 61099600 6597 55 393 8502
6.5909076 -5.0292163 -1.7302229 884 61196930 6344 55 369 8477
6.5281954 -5.0450473 -1.7216636 849 61294810 6021 55 347 8436
6.4817128 -5.0729551 -1.7174883 894 61391630 6309 55 382 8416
6.4535298 -5.1150603 -1.7183233 890 61490030 6290 55 422 8420
6.4243112 -5.1563983 -1.7189496 879 61586440 6219 55 386 8423
6.3766127 -5.1827683 -1.7145655 859 61683750 6053 55 412 8402
6.3356295 -5.2143402 -1.7120603 859 61782360 6035 55 407 8390
6.2899914 -5.2418485 -1.7083026 870 61879490 6088 55 384 8372
6.2599521 -5.2822366 -1.7089288 893 61977730 6246 55 388 8375
6.2147818 -5.3097491 -1.7053798 872 62074290 6068 55 390 8358
6.1613731 -5.3298697 -1.6995344 850 62172330 5869 55 385 8330
6.121932 -5.3617764 -1.6976556 854 62268480 5899 55 366 8321
6.0823312 -5.3934002 -1.6957767 868 62365040 5982 55 373 8312
6.0447569 -5.4266996 -1.694524 859 62463060 5919 55 336 8306
6.0178595 -5.4696064 -1.6964029 823 62560560 5675 55 368 8315
5.9957008 -5.5170226 -1.6997432 837 62658380 5795 55 348 8331
5.959589 -5.5517082 -1.6991169 817 62756430 5653 55 343 8328
5.9069123 -5.5707273 -1.693689 839 62853800 5775 55 352 8302
5.8733268 -5.6075416 -1.6938977 843 62952570 5796 55 371 8303
5.8317766 -5.6366782 -1.6918101 839 63049840 5762 55 365 8293
5.789391 -5.6648326 -1.6895137 841 63148140 5749 55 319 8282
5.7385411 -5.6844211 -1.6847121 850 63244380 5771 55 350 8259
5.6931949 -5.7091389 -1.6815807 847 63343090 5727 55 383 8244
5.6333475 -5.7188849 -1.6740651 807 63440470 5430 55 352 8208
5.5851917 -5.740027 -1.6700985 821 63538360 5483 55 378 8189
5.5505443 -5.7748938 -1.6703073 804 63637770 5382 55 416 8190
5.5203929 -5.8145161 -1.6719774 790 63735710 5301 55 371 8198
5.494648 -5.8589783 -1.6751089 807 63833760 5439 55 317 8213
5.4625826 -5.8968868 -1.6763614 773 63931180 5206 55 382 8219
5.4130917 -5.9158645 -1.6721861 734 64029530 4923 55 419 8199
5.3747234 -5.9467912 -1.6715599 743 64127420 4963 55 365 8196
5.3439956 -5.9862232 -1.6734388 766 64224700 5135 55 382 8205
5.3129859 -6.0255017 -1.6753176 806 64322330 5417 55 365 8214
5.2714176 -6.0528264 -1.6738563 808 64419040 5428 55 366 8207
5.1908073 -6.0346456 -1.6596602 789 64518160 5205 55 377 8139
5.156848 -6.0701084 -1.6607041 834 64615070 5516 55 370 8144
5.1050458 -6.0844059 -1.6559025 774 64712130 5083 55 383 8121
5.0520148 -6.0967913 -1.6506834 808 64811110 5282 55 377 8096
5.0157495 -6.1291885 -1.6511009 887 64907820 5809 55 363 8098
4.9657512 -6.1446381 -1.6469256 817 65007850 5317 55 367 8078
4.9200234 -6.1650553 -1.6442116 870 65104510 5651 55 365 8065
4.8808923 -6.1935921 -1.6437941 824 65201370 5337 55 353 8063
4.8403945 -6.2203369 -1.642959 795 65300750 5145 55 320 8059
4.7931972 -6.2382884 -1.6398276 852 65396940 5494 55 337 8044
4.7483263 -6.2590117 -1.6375312 819 65493770 5278 55 369 8033
4.6928277 -6.2653317 -1.631477 859 65592460 5497 55 343 8004
4.6380124 -6.2719932 -1.6256316 851 65690150 5399 55 366 7976
4.5740652 -6.2655811 -1.6164459 813 65787830 5105 55 418 7932
4.5263844 -6.2808361 -1.6131057 823 65885460 5146 55 320 7916
4.4973993 -6.3220372 -1.6166546 819 65982330 5148 55 344 7933
4.4540267 -6.3431115 -1.6149845 839 66080930 5262 55 371 7925
4.4116793 -6.365499 -1.613732 850 66177090 5305 55 364 7919
4.3394051 -6.3440208 -1.6012061 833 66275380 5138 55 368 7859
4.2801485 -6.3405385 -1.5934817 833 66372440 5090 55 345 7822
4.2324867 -6.3536601 -1.5901414 912 66469520 5544 55 371 7806
4.1993318 -6.3884993 -1.5924379 929 66568000 5660 55 331 7817
4.1605859 -6.4149661 -1.5926466 896 66665340 5464 55 360 7818
4.1111288 -6.4247241 -1.5886801 900 66761800 5457 55 314 7799
4.0554438 -6.4241943 -1.5822084 905 66858090 5442 55 355 7768
3.9719996 -6.3783984 -1.5644634 887 66955620 5229 55 370 7683
3.9245963 -6.389318 -1.5611231 870 67054210 5105 55 412 7667
3.8731544 -6.3932052 -1.5561128 931 67151930 5426 55 377 7643
3.805759 -6.3698392 -1.5444219 947 67247920 5439 55 361 7587
3.7586582 -6.3795905 -1.5410817 924 67346460 5278 55 384 7571
3.7120726 -6.3898492 -1.5379502 934 67443170 5321 55 334 7556
3.6757123 -6.4175973 -1.5392027 937 67539780 5342 55 327 7562
3.6218374 -6.414484 -1.5329398 925 67639830 5243 55 331 7532
3.5733724 -6.4203515 -1.5289732 920 67737150 5182 55 346 7513
3.5310879 -6.4370122 -1.5277207 933 67834160 5252 55 355 7507
3.4822209 -6.4413524 -1.5235454 907 67932410 5072 55 359 7487
3.4177978 -6.4159913 -1.512272 911 68029480 5024 55 427 7433
3.370183 -6.4212556 -1.5085143 898 68127110 4930 55 372 7415
3.3374584 -6.454844 -1.5116458 955 68225400 5258 55 400 7430
3.3133271 -6.5056996 -1.5189525 882 68323550 4901 55 403 7465
3.2882581 -6.5556273 -1.5260506 877 68420640 4914 55 367 7499
3.2063839 -6.491509 -1.5060091 888 68519170 4854 55 398 7403
3.1446738 -6.4662099 -1.495362 973 68617110 5246 55 382 7352
3.1091628 -6.4942036 -1.4974498 981 68713770 5304 55 391 7362
3.052994 -6.4786592 -1.4893079 979 68811770 5233 55 364 7323
3.0144188 -6.4999313 -1.4899342 991 68909140 5306 55 386 7326
2.985038 -6.5414367 -1.495362 911 69006520 4901 55 384 7352
2.9636743 -6.6015596 -1.505174 843 69105060 4602 55 380 7399
2.8954513 -6.5569997 -1.4905604 962 69201770 5161 55 369 7329
2.8267186 -6.5091624 -1.4753206 933 69299150 4903 55 439 7256
2.7917199 -6.5380759 -1.4780345 898 69398780 4738 55 383 7269
2.7572298 -6.5686083 -1.481166 896 69496010 4743 55 350 7284
2.6877732 -6.5148902 -1.4648824 921 69593080 4766 55 365 7206
2.6429701 -6.5194778 -1.4621683 942 69691780 4863 55 380 7193
2.6040034 -6.5382977 -1.4627947 972 69789000 5026 55 397 7196
2.5606287 -6.5459557 -1.4609158 879 69886480 4528 55 384 7187
2.5112948 -6.5378089 -1.4554878 948 69984670 4845 55 366 7161
2.4683709 -6.5457749 -1.4538177 966 70081900 4925 55 395 7153
2.4268022 -6.5571289 -1.4529827 1005 70179840 5116 55 356 7149
2.3781745 -6.5489163 -1.4477636 955 70278750 4834 55 389 7124
2.3353202 -6.5560155 -1.4460934 930 70376180 4703 55 370 7116
2.2879517 -6.5499101 -1.4415007 929 70473410 4660 55 359 7094
2.2486701 -6.5666013 -1.4421269 973 70570370 4889 55 364 7097
2.2055345 -6.5719309 -1.440248 957 70669280 4795 55 399 7088
2.1685295 -6.5955591 -1.4425445 904 70766810 4544 55 376 7099
2.1211221 -6.5873313 -1.4377428 938 70863980 4691 55 363 7076
2.072427 -6.5741072 -1.4318974 880 70962590 4355 55 377 7048
2.0398374 -6.6119304 -1.4375341 900 71059250 4490 55 340 7075
1.9969676 -6.6168323 -1.435864 888 71156410 4424 55 363 7067
1.9530067 -6.6177053 -1.4333588 965 71254360 4793 55 368 7055
1.911551 -6.6267457 -1.4327325 932 71351420 4618 55 372 7052
1.8737733 -6.6487036 -1.4350289 892 71449630 4443 55 392 7063
1.8261924 -6.635561 -1.4296011 879 71546790 4342 55 381 7037
1.7598064 -6.5512519 -1.4085157 924 71644580 4430 55 372 6936
1.7198236 -6.5628724 -1.4087245 879 71742060 4219 55 384 6937
1.7035018 -6.6671038 -1.4293922 885 71839020 4371 55 344 7036
1.6533415 -6.6404209 -1.4212505 916 71936600 4468 55 379 6997
1.6051873 -6.620028 -1.41457 845 72034810 4089 55 376 6965
1.5553231 -6.5907292 -1.4060105 871 72131920 4166 55 354 6924
1.516605 -6.6077738 -1.4076806 810 72230160 3884 55 440 6932
1.481784 -6.6427259 -1.4133173 848 72327290 4094 55 415 6959
1.4465909 -6.6774988 -1.418954 778 72425180 3778 55 349 6986
1.3981428 -6.6508393 -1.4112297 832 72522490 4001 55 397 6949
1.3561351 -6.6535435 -1.4099771 826 72619320 3970 55 400 6943
1.3323438 -6.7480869 -1.428766 829 72717910 4083 55 403 7033
1.2863218 -6.732121 -1.4235468 780 72815040 3814 55 398 7008
1.227747 -6.6466045 -1.4032966 772 72912100 3679 55 416 6911
1.1874566 -6.6569009 -1.4039229 820 73009580 3907 55 410 6914
1.1505711 -6.6871924 -1.4089333 808 73106650 3878 55 407 6938
1.1122382 -6.7105279 -1.4124823 818 73205660 3953 55 436 6955
1.0784395 -6.7635818 -1.422503 776 73303710 3794 55 381 7003
1.0496621 -6.8532057 -1.4404567 768 73401230 3849 55 359 7089
1.0075918 -6.8595176 -1.4404567 802 73497080 4019 55 378 7089
0.95785052 -6.8113394 -1.428766 821 73595120 4045 55 380 7033
0.91877651 -6.8374424 -1.4331501 723 73691830 3589 55 436 7054
0.87692988 -6.8439212 -1.4333588 827 73790230 4100 55 363 7055
0.83634132 -6.8608222 -1.435864 707 73887400 3527 55 420 7067
0.80592841 -6.9668579 -1.4575756 743 73986160 3800 55 339 7171
0.76135427 -6.9551454 -1.4540266 713 74083440 3633 55 369 7154
0.7094115 -6.8701901 -1.4348202 712 74180350 3539 55 401 7062
0.66109449 -6.8111439 -1.4212505 722 74278030 3531 55 430 6997
0.6262024 -6.8910398 -1.4375341 703 74375160 3505 55 445 7075
0.5847345 -6.9044971 -1.4396217 690 74473150 3454 55 469 7085
0.55914825 -7.12147 -1.4853413 673 74570930 3584 55 384 7304
0.50801951 -7.0223494 -1.463421 657 74668400 3403 55 407 7199
0.46550387 -7.0341167 -1.4652998 733 74765730 3791 55 384 7208
0.41123882 -6.8523383 -1.4258432 783 74863970 3842 55 346 7019
0.36934406 -6.8576622 -1.4264696 813 74962830 3988 55 371 7022
0.32819375 -6.8793364 -1.4306449 790 75061190 3911 55 387 7042
0.28736156 -6.9144425 -1.4377428 779 75157690 3891 55 346 7076
0.24565932 -6.9365997 -1.4421269 729 75255110 3660 55 393 7097
0.20004657 -6.8343573 -1.4199978 781 75353670 3797 55 356 6991
0.15710756 -6.7924371 -1.4108121 817 75452480 3931 55 382 6947
0.11519268 -6.7795835 -1.4078895 684 75549810 3267 55 389 6933
0.07364545 -6.7850523 -1.4089333 767 75647490 3685 55 402 6938
0.032111235 -6.8059134 -1.4133173 746 75744920 3592 55 375 6959
-0.0096003665 -6.7678418 -1.4051754 751 75842810 3592 55 446 6920
-0.051134147 -6.7686334 -1.4053843 701 75939570 3341 55 403 6921
-0.092585146 -6.7623248 -1.4041317 705 76037910 3362 55 452 6915
-0.1339414 -6.7547851 -1.4026703 771 76135240 3664 55 369 6908
-0.17632024 -6.790009 -1.4103947 692 76231950 3335 55 411 6945
-0.21760447 -6.7770696 -1.4078895 797 76330310 3820 55 390 6933
-0.26492167 -6.9261041 -1.4400393 720 76428850 3609 55 399 7087
-0.30183452 -6.7983141 -1.4131086 764 76526850 3691 55 412 6958
-0.35196412 -6.9633541 -1.4488074 726 76624990 3676 55 424 7129
-0.39921361 -7.0411286 -1.4659262 715 76723340 3707 55 342 7211
-0.44498137 -7.0795403 -1.4746943 704 76820630 3687 55 356 7253
-0.48827779 -7.0747256 -1.4742768 783 76917070 4100 55 379 7251
-0.52757889 -7.016984 -1.4625859 753 77015050 3887 55 364 7195
-0.56500208 -6.944407 -1.4477636 801 77111460 4049 55 386 7124
-0.6086235 -6.9525003 -1.4502687 753 77208120 3823 55 381 7136
-0.65309465 -6.9681096 -1.4544441 768 77306410 3920 55 398 7156
-0.69030231 -6.9085026 -1.4425445 748 77404510 3767 55 409 7099
-0.72907114 -6.8700986 -1.4352376 791 77502040 3933 55 439 7064
-0.77306539 -6.8820176 -1.4387866 778 77599260 3893 55 405 7081
-0.80803239 -6.8159604 -1.4256345 813 77696790 3984 55 365 7018
-0.8514117 -6.8234897 -1.4283484 823 77793970 4056 55 390 7031
-0.89821368 -6.8559551 -1.4364903 856 77890260 4271 55 402 7070
-0.93322217 -6.7989635 -1.4254258 786 77987070 3854 55 391 7017
-0.99116307 -6.9063725 -1.4498513 758 78084610 3835 55 402 7134
-1.0316393 -6.8875875 -1.4471372 779 78183770 3939 55 388 7121
-1.0705664 -6.8598695 -1.4425445 797 78280950 4005 55 387 7099
-1.1292379 -6.9554982 -1.4646735 708 78378480 3669 55 359 7205
-1.1894476 -7.0525899 -1.4872202 733 78475950 3904 55 356 7313
-1.2316884 -7.0393786 -1.4859676 745 78573580 3963 55 321 7307
-1.2626537 -6.9643278 -1.471354 741 78670910 3868 55 390 7237
-1.276342 -6.8016939 -1.4377428 869 78767620 4335 55 371 7076
-1.3204724 -6.8062158 -1.4404567 809 78864950 4050 55 359 7089
-1.3758439 -6.8660693 -1.4552791 690 78962420 3529 55 419 7160
-1.4543631 -7.0337205 -1.4936919 725 79059230 3894 55 351 7344
-1.4936219 -7.0064907 -1.4897254 717 79157690 3841 55 380 7325
-1.5147812 -6.89785 -1.4680138 828 79255940 4304 55 407 7221
-1.5616028 -6.9084582 -1.4723979 753 79352900 3940 55 330 7242
-1.6269839 -6.9978151 -1.4941095 802 79450790 4317 55 330 7346
-1.6467171 -6.890677 -1.4728154 810 79547970 4246 55 348 7244
-1.6833737 -6.8576484 -1.467805 781 79645650 4052 55 317 7220
-1.7273306 -6.8547769 -1.4694752 828 79743020 4315 55 350 7228
-1.7590822 -6.8042808 -1.4607071 843 79840470 4340 55 409 7186
-1.7965413 -6.7772884 -1.457158 846 79938130 4332 55 376 7169
-1.8447552 -6.7906761 -1.4625859 782 80035400 4037 55 367 7195
-1.895035 -6.8103218 -1.4694752 776 80133100 4041 55 408 7228
-1.9386615 -6.8051496 -1.4709365 808 80231590 4217 55 379 7235
-1.9762766 -6.7790427 -1.467805 837 80329020 4351 55 372 7220
-2.0248187 -6.7902193 -1.4730241 811 80427160 4246 55 354 7245
-2.0835505 -6.8337965 -1.48555 815 80525550 4331 55 397 7305
-2.1260242 -6.822751 -1.4859676 814 80623050 4333 55 384 7307
-2.1672547 -6.8077135 -1.48555 846 80720630 4499 55 336 7305
-2.208683 -6.7933574 -1.4853413 860 80819170 4577 55 365 7304
-2.2441654 -6.7611132 -1.481166 851 80916650 4505 55 338 7284
-2.2821581 -6.7370267 -1.4788696 881 81014640 4654 55 359 7273
-2.3221755 -6.7191992 -1.4780345 847 81112120 4459 55 257 7269
-2.3659601 -6.712203 -1.4797046 819 81210010 4334 55 316 7277
-2.3988345 -6.6745501 -1.4744855 896 81307740 4702 55 344 7252
-2.4360442 -6.6496043 -1.4721891 901 81404660 4711 55 391 7241
-2.4853477 -6.6574378 -1.4774083 826 81502240 4349 55 379 7266
-2.5299733 -6.6521182 -1.4797046 857 81600330 4529 55 312 7277
-2.5742736 -6.6455889 -1.4817923 828 81697910 4389 55 297 7287
-2.6218176 -6.6469545 -1.4857589 847 81795290 4502 55 298 7306
-2.6691108 -6.6470785 -1.4895166 849 81892370 4540 55 305 7324
-2.7105861 -6.6323867 -1.4899342 851 81989580 4558 55 320 7326
-2.7504797 -6.6138239 -1.4895166 843 82087370 4511 55 357 7324
-2.8283429 -6.6850934 -1.5099757 777 82184330 4264 55 340 7422
-2.8708546 -6.6712065 -1.5108107 816 82281360 4477 55 358 7426
-2.9109504 -6.6516738 -1.5103931 786 82379850 4317 55 335 7424
-2.9517095 -6.633687 -1.5103931 742 82477130 4070 55 393 7424
-2.9915516 -6.6136689 -1.5099757 803 82575790 4406 55 366 7422
-3.0328927 -6.5969658 -1.5103931 758 82673930 4155 55 356 7424
-3.0944202 -6.6234221 -1.5210402 826 82771460 4604 55 357 7475
-3.1400337 -6.614913 -1.5235454 770 82868890 4305 55 337 7487
-3.1843853 -6.6034498 -1.5254242 834 82966830 4675 55 343 7496
-3.2274237 -6.5890565 -1.5266769 815 83063690 4572 55 304 7502
-3.2664864 -6.5665026 -1.5260506 836 83161220 4696 55 349 7499
-3.3239086 -6.5803819 -1.5341923 803 83257880 4548 55 307 7538
-3.3735924 -6.5781384 -1.5385765 824 83355820 4691 55 352 7559
-3.4238248 -6.5763993 -1.5431693 838 83453100 4800 55 327 7581
-3.4645691 -6.5561323 -1.543378 878 83550970 5042 55 331 7582
-3.5259893 -6.5743976 -1.5529813 865 83649170 5024 55 300 7628
-3.5452297 -6.5139818 -1.5435869 819 83745780 4704 55 325 7583
-3.5794599 -6.4818325 -1.5410817 927 83842640 5298 55 308 7571
-3.6401923 -6.4972897 -1.5502673 913 83940070 5278 55 329 7615
-3.7012484 -6.5122447 -1.559453 859 84037290 5035 55 319 7659
-3.7318585 -6.4733124 -1.5554864 859 84135190 5009 55 324 7640
-3.7759497 -6.457891 -1.5573653 847 84232660 4930 55 373 7649
-3.8214879 -6.4446959 -1.5598705 970 84330190 5681 55 335 7661
-3.8811142 -6.4546533 -1.5682211 887 84428480 5254 55 350 7701
-3.9186103 -6.4273777 -1.567386 863 84525510 5096 55 326 7697
-3.9487202 -6.3882375 -1.5636283 826 84623390 4859 55 354 7679
-4.0029001 -6.3879228 -1.5696825 839 84721430 4978 55 366 7708
-4.0320592 -6.3475556 -1.5657159 857 84818240 5049 55 469 7689
-4.0831056 -6.341609 -1.5705175 845 84913940 5011 55 387 7712
-4.1417117 -6.3467417 -1.5782418 860 85011930 5151 55 379 7749
-4.2086248 -6.3636293 -1.5890976 869 85109090 5267 55 397 7801
-4.253036 -6.3458104 -1.5911853 826 85206580 5026 55 374 7811
-4.3006825 -6.33254 -1.5945256 886 85304260 5408 55 371 7827
-4.3422289 -6.310061 -1.5955694 882 85402920 5399 55 329 7832
-4.3842206 -6.2881126 -1.5968219 868 85501320 5319 55 379 7838
-4.4345684 -6.2778687 -1.6012061 882 85598440 5433 55 379 7859
-4.4678836 -6.2433825 -1.5993271 801 85696170 4915 55 378 7850
-4.5043864 -6.2134748 -1.5987009 835 85794160 5123 55 352 7847
-4.5487933 -6.1943908 -1.6009972 811 85891390 4996 55 338 7858
-4.5966368 -6.1797042 -1.6045463 838 85988550 5178 55 347 7875
-4.6532965 -6.1763806 -1.6112268 826 86086910 5149 55 388 7907
-4.6887341 -6.1446023 -1.6103917 835 86185300 5195 55 378 7903
-4.7287402 -6.1188126 -1.6112268 768 86283450 4786 55 390 7907
-4.7541418 -6.0742784 -1.6070515 901 86381790 5591 55 370 7887
-4.8034711 -6.0603228 -1.6112268 820 86478300 5113 55 379 7907
-4.8368936 -6.0261588 -1.6099741 834 86576300 5191 55 393 7901
-4.8626771 -5.9827051 -1.6062164 849 86673310 5255 55 372 7883
-4.9166937 -5.9739008 -1.6120619 826 86770530 5156 55 368 7911
-4.9444919 -5.9331012 -1.6091391 846 86867340 5255 55 376 7897
-4.9776506 -5.8989129 -1.6080953 818 86965490 5091 55 429 7892
-5.0169282 -5.8719778 -1.6091391 825 87064760 5135 55 403 7897
-5.0605402 -5.8499603 -1.6116443 828 87162390 5165 55 373 7909
-5.0931182 -5.8151207 -1.6106005 830 87259620 5176 55 416 7904
-5.1254597 -5.7801013 -1.6095567 910 87357040 5657 55 393 7899
-5.1699743 -5.7587323 -1.6124793 843 87453090 5262 55 402 7913
-5.2078428 -5.7297969 -1.6133144 832 87551080 5195 55 368 7917
-5.2316461 -5.6854987 -1.6097654 823 87647640 5120 55 415 7900
-5.2697659 -5.6568694 -1.6108092 834 87745420 5196 55 416 7905
-5.3137693 -5.6343899 -1.613732 844 87843660 5272 55 378 7919
-5.342164 -5.5953121 -1.611853 813 87941360 5060 55 397 7910
-5.3641629 -5.5497694 -1.6080953 847 88038170 5266 55 417 7892
-5.4206829 -5.5398207 -1.6149845 826 88136410 5173 55 379 7925
-5.4779706 -5.5300813 -1.6220826 851 88233840 5377 55 364 7959
-5.5194159 -5.5039616 -1.6243789 868 88331360 5499 55 385 7970
-5.5530834 -5.4699917 -1.6243789 883 88427920 5605 55 405 7970
-5.6012602 -5.4501395 -1.6287631 881 88525870 5618 55 362 7991
-5.6620917 -5.442101 -1.6369048 854 88623350 5493 55 350 8030
-5.7031779 -5.4146643 -1.6392013 841 88720670 5418 55 352 8041
-5.7448535 -5.3875971 -1.6417065 882 88818150 5706 55 351 8053
-5.7864118 -5.3602223 -1.6442116 856 88916030 5562 55 336 8065
-5.809092 -5.3153729 -1.6412889 815 89013550 5261 55 404 8051
-5.8357935 -5.2743821 -1.6396188 863 89109910 5564 55 336 8043
-5.8797183 -5.2488971 -1.642959 844 89207040 5460 55 374 8059
-5.9235501 -5.2230706 -1.6462992 841 89304100 5463 55 365 8075
-5.9635983 -5.1936922 -1.6485957 851 89402710 5549 55 382 8086
-5.9857163 -5.1487107 -1.6458818 847 89500950 5493 55 372 8073
-6.0298648 -5.1226516 -1.6494308 866 89596700 5647 55 379 8090
-6.0656781 -5.0893288 -1.6506834 858 89694680 5604 55 365 8096
-6.09905 -5.0538869 -1.6513096 838 89792270 5479 55 330 8099
-6.132216 -5.0182271 -1.6519359 859 89890380 5629 55 385 8102
-6.1514831 -4.9712844 -1.6488044 841 89988670 5497 55 414 8087
-6.1803417 -4.9322257 -1.648387 906 90083720 5915 55 355 8085
-6.24966 -4.9250865 -1.659034 836 90183040 5524 55 414 8136
-6.2535224 -4.8662233 -1.6519359 801 90280120 5238 55 368 8102
-6.2948947 -4.8367 -1.6550674 826 90377500 5427 55 392 8117
-6.3330231 -4.8044868 -1.6573639 840 90474310 5534 55 390 8128
-6.3608184 -4.7643652 -1.6569463 868 90571890 5716 55 402 8126
-6.4001536 -4.7328062 -1.6596602 828 90670900 5468 55 417 8139
-6.4717231 -4.7245898 -1.6709336 843 90768420 5643 55 386 8193
-6.4395037 -4.6407576 -1.6548587 887 90866980 5832 55 423 8116
-6.461483 -4.596622 -1.6531886 856 90963130 5619 55 371 8108
-6.5167761 -4.5759997 -1.6602865 878 91061890 5812 55 389 8142
-6.5616093 -4.5476279 -1.6646706 869 91158750 5769 55 372 8163
-6.5530686 -4.4824309 -1.6552762 858 91256440 5632 55 393 8118
-6.5723438 -4.4366651 -1.6531886 910 91353400 5961 55 381 8108
-6.5961876 -4.3940849 -1.6523535 900 91451140 5889 55 386 8104
-6.6164875 -4.3492308 -1.6506834 891 91549070 5819 55 362 8096
-6.6553559 -4.3165345 -1.6538148 877 91646300 5749 55 372 8111
-6.6866589 -4.27878 -1.6550674 866 91743930 5703 55 406 8117
-6.723537 -4.2444587 -1.6577814 883 91841720 5833 55 412 8130
-6.7386622 -4.1964025 -1.6550674 855 91939810 5611 55 394 8117
-6.7651176 -4.1554875 -1.6552762 822 92037810 5408 55 387 8118
-6.7946696 -4.1164336 -1.65632 845 92135950 5560 55 372 8123
-6.8298736 -4.0806851 -1.6588252 893 92233380 5893 55 396 8135
-6.8724771 -4.0491281 -1.6632093 880 92331350 5833 55 379 8156
-6.920023 -4.0201497 -1.6688459 869 92427860 5796 55 389 8183
-6.9725628 -3.9936566 -1.6757352 870 92525710 5865 55 351 8216
-7.0122638 -3.9594555 -1.679493 876 92623040 5926 55 351 8234
-7.041553 -3.9192085 -1.6807456 859 92721680 5827 55 327 8240
-7.1023355 -3.896158 -1.6897224 858 92819320 5868 55 314 8283
-7.107183 -3.8422716 -1.6851296 870 92917870 5932 55 332 8261
-7.1306248 -3.7985904 -1.6851296 870 93015290 5930 55 343 8261
-7.1589937 -3.7574937 -1.6863822 857 93111750 5846 55 297 8267
-7.2079744 -3.7269742 -1.6926452 816 93209330 5591 55 332 8297
-7.2620773 -3.6986585 -1.7001607 801 93307520 5540 55 367 8333
-7.3099847 -3.6667483 -1.7062149 780 93405220 5436 55 300 8362
-7.4209008 -3.6655796 -1.7273002 832 93501110 5944 55 248 8463
-7.4608412 -3.6285329 -1.7314755 712 93599850 5095 55 229 8483
-7.5120721 -3.5966253 -1.7383647 715 93697400 5178 55 221 8516
-7.5755758 -3.5700631 -1.7481767 678 93793940 4949 55 241 8563
-7.6567783 -3.5510871 -1.762164 697 93890650 5160 55 239 8630
-7.6979957 -3.5129735 -1.7667568 686 93988130 5119 55 247 8652
-7.7586598 -3.4833014 -1.7759424 663 94084540 4997 55 260 8696
-7.8219323 -3.4542019 -1.7857544 667 94182880 5076 55 230 8743
-7.8716831 -3.4186115 -1.7924349 606 94280730 4641 55 261 8775
-7.9509692 -3.3952172 -1.8060046 570 94378100 4423 55 236 8840
-7.9923916 -3.3550754 -1.8108063 515 94475330 4038 55 227 8863
-7.9938431 -3.2981369 -1.8064222 462 94572240 3590 55 208 8842
-8.0166483 -3.2501283 -1.8070486 500 94670240 3896 55 231 8845
-8.0282631 -3.1976202 -1.8051696 557 94767100 4332 55 248 8836
-8.0276966 -3.1404591 -1.8005768 567 94865490 4371 55 273 8814
-8.0422506 -3.0893891 -1.799533 568 94963380 4391 55 252 8809
-8.0454998 -3.0341165 -1.7959839 569 95059630 4372 55 281 8792
-8.0447054 -2.9775624 -1.7915999 499 95158440 3830 55 239 8771
-8.0453596 -2.9218006 -1.7876333 576 95256030 4398 55 209 8752
-8.0401058 -2.8641732 -1.7824142 581 95351560 4397 55 196 8727
-8.0787621 -2.8222063 -1.7872158 561 95449750 4288 55 217 8750
-8.0737228 -2.764976 -1.7822055 576 95546560 4372 55 208 8726
-8.0794106 -2.7116494 -1.7797003 457 95643320 3466 55 177 8714
-8.1042585 -2.6647742 -1.7815791 566 95741520 4285 55 215 8723
-8.1353502 -2.6197951 -1.7849194 573 95839040 4372 55 174 8739
-8.1559353 -2.5712988 -1.7859632 571 95936740 4352 55 204 8744
-8.1640835 -2.5188992 -1.7842931 593 96034880 4511 55 220 8736
-8.1578522 -2.4622564 -1.7794915 564 96131390 4276 55 198 8713
-8.1896896 -2.4171391 -1.7832493 588 96229480 4468 55 210 8731
-8.2194004 -2.3711812 -1.7865895 557 96327160 4248 55 207 8747
-8.2309713 -2.3199072 -1.7859632 569 96424790 4330 55 200 8744
-8.2591944 -2.2732534 -1.7890947 559 96522830 4282 55 211 8759
-8.270154 -2.2217717 -1.7884684 585 96619960 4471 55 225 8756
-8.2798471 -2.1699932 -1.7876333 562 96716500 4290 55 224 8752
-8.2967958 -2.1201169 -1.7884684 590 96815310 4516 55 226 8756
-8.2944651 -2.0653865 -1.7851281 534 96913410 4073 55 202 8740
-8.3364439 -2.0216014 -1.7915999 518 97010480 3973 55 187 8771
-8.3572578 -1.9724346 -1.7934787 557 97108380 4279 55 222 8780
-8.3692026 -1.9211183 -1.7934787 529 97205090 4066 55 189 8780
-8.3770151 -1.8688775 -1.7926437 515 97303780 3959 55 219 8776
-8.3797226 -1.8155773 -1.7907648 507 97401620 3890 55 209 8767
-8.3993187 -1.7659379 -1.7926437 546 97498640 4191 55 208 8776
-8.4138288 -1.7151492 -1.7934787 521 97596180 4000 55 243 8780
-8.4270725 -1.6640593 -1.7941051 511 97693440 3919 55 231 8783
-8.4457693 -1.6139734 -1.7959839 505 97790000 3889 55 219 8792
-8.4651308 -1.5638983 -1.7980716 505 97889230 3898 55 216 8802
-8.4793806 -1.5127871 -1.7991154 491 97986600 3802 55 201 8807
-8.4971771 -1.4622236 -1.8009943 481 98084800 3724 55 215 8816
-8.5117779 -1.4110186 -1.8022469 486 98180170 3767 55 229 8822
-8.5125494 -1.3575319 -1.8005768 475 98278320 3662 55 192 8814
-8.5071859 -1.3031998 -1.797654 454 98376610 3495 55 198 8800
-8.5130863 -1.2506917 -1.7972366 705 98473470 5431 55 265 8798
-8.5138216 -1.1974787 -1.7957752 1069 98569520 8246 55 346 8791
-8.5326395 -1.1467806 -1.7982804 1122 98667010 8682 55 308 8803
-8.5550356 -1.0963943 -1.8016206 972 98764370 7555 55 297 8819
-8.5819883 -1.0463686 -1.8060046 720 98863550 5600 55 264 8840
-8.6018476 -0.99526584 -1.8089274 444 98961490 3458 55 216 8854
-8.6019602 -0.94182795 -1.8076748 452 99058150 3519 55 170 8848
-8.6075773 -0.88902956 -1.8076748 483 99156690 3776 55 193 8848
-8.6109228 -0.83600855 -1.8072573 464 99253450 3611 55 170 8846
-8.6217346 -0.7836889 -1.8085098 454 99350980 3539 55 162 8852
-8.6302786 -0.73110282 -1.8093449 459 99449590 3580 55 175 8856
-8.6248522 -0.67736799 -1.8072573 408 99545240 3186 55 211 8846
-8.6298218 -0.6245048 -1.807466 425 99642300 3307 55 171 8847
-8.6500797 -0.57264131 -1.811015 433 99738710 3390 55 179 8864
-8.6495266 -0.51931977 -1.8101799 419 99836850 3278 55 169 8860
-8.3199177 0.48462892 -1.8124996 387 0 2809 56 301 8537
-8.3158131 0.53560698 -1.8122827 377 96510 2727 56 315 8536
-8.3162651 0.58689708 -1.8131505 435 193000 3147 56 172 8540
-8.3105612 0.6377641 -1.8127166 394 290180 2847 56 276 8538
-8.3152466 0.68947166 -1.8146691 394 388990 2853 56 282 8547
-8.3205824 0.74134749 -1.8168386 377 486020 2743 56 266 8557
-8.3042164 0.7912752 -1.8142352 347 583280 2517 56 263 8545
-8.3069744 0.84300333 -1.8159708 360 680420 2609 56 269 8553
-8.3142624 0.89531821 -1.8187912 360 777730 2618 56 249 8566
-8.3435287 0.95029742 -1.8266014 422 875360 3098 56 270 8602
-8.332695 1.0008918 -1.8255167 346 972020 2546 56 289 8597
-8.325428 1.051879 -1.8252997 370 1070060 2714 56 303 8596
-8.3246231 1.1037135 -1.8266014 347 1167840 2551 56 259 8602
-8.3205948 1.1551747 -1.8272523 346 1264200 2554 56 235 8605
-8.3162479 1.206628 -1.8279032 360 1362240 2644 56 251 8608
-8.3173742 1.2589487 -1.8298557 376 1459770 2782 56 273 8617
-8.3220291 1.311937 -1.8326761 377 1558480 2792 56 246 8630
-8.3205652 1.3640815 -1.8341947 374 1654920 2780 56 267 8637
-8.2822065 1.4100276 -1.8274692 323 1752720 2369 56 238 8606
-8.2801285 1.4620087 -1.8289878 386 1851630 2847 56 254 8613
-8.3257351 1.5228041 -1.841354 341 1948590 2539 56 257 8670
-8.3104801 1.5727714 -1.8400524 357 2047350 2665 56 235 8664
-8.3035469 1.6242965 -1.8407032 343 2144110 2553 56 251 8667
-8.2809849 1.6727016 -1.8378829 338 2241240 2515 56 246 8654
-8.2619648 1.721688 -1.8359303 277 2338300 2060 56 274 8645
-8.2846489 1.7795289 -1.8435236 380 2436810 2839 56 249 8680
-8.285965 1.8330716 -1.8463439 367 2534530 2749 56 254 8693
-8.2859831 1.8864805 -1.8489473 346 2631360 2612 56 265 8705
-8.262846 1.934615 -1.8463439 342 2729140 2567 56 257 8693
-8.1976719 1.9724842 -1.8341947 177 2826470 1305 56 236 8637
-8.2138443 2.0297756 -1.8407032 126 2924660 940 56 209 8667
-8.257061 2.0943027 -1.8535033 364 3021840 2753 56 281 8726
-8.254447 2.1476324 -1.8558898 355 3120330 2692 56 271 8737
-8.247716 2.2000022 -1.8574084 447 3219460 3406 56 287 8744
-8.2594852 2.2575197 -1.8632661 543 3315800 4155 56 330 8771
-8.2605181 2.3123684 -1.8667374 512 3414260 3940 56 317 8787
-8.2452364 2.3627415 -1.8665204 377 3511120 2892 56 275 8786
-8.2465076 2.4179597 -1.8702085 406 3608900 3136 56 268 8803
-8.2128153 2.4629037 -1.8658695 407 3705780 3121 56 288 8783
-8.2563448 2.5312831 -1.8795373 400 3803350 3113 56 249 8846
-8.2117815 2.5728447 -1.8728119 381 3900580 2940 56 310 8815
-8.1902618 2.621397 -1.8715103 360 3998770 2768 56 256 8809
-8.2046423 2.6816132 -1.8786696 395 4096630 3069 56 275 8842
-8.2121086 2.7399409 -1.8843104 423 4193360 3317 56 258 8868
-8.2090034 2.7949989 -1.8875645 413 4291820 3248 56 276 8883
-8.1907768 2.8449953 -1.8873476 388 4388680 3044 56 258 8882
-8.1980095 2.9040027 -1.8932053 424 4487840 3361 56 295 8909
-8.1938086 2.9592254 -1.8964596 385 4585220 3055 56 266 8924
-8.1956491 3.0168669 -1.9012325 418 4683160 3337 56 235 8946
-8.1852102 3.070184 -1.903185 421 4779520 3358 56 264 8955
-8.1726007 3.1227894 -1.9047037 398 4877050 3192 56 298 8962
-8.1541948 3.1732309 -1.9049207 392 4974430 3122 56 273 8963
-8.135479 3.2235641 -1.9051375 357 5072100 2852 56 238 8964
-8.1454201 3.285475 -1.912297 360 5170050 2887 56 275 8997
-8.1431675 3.3428087 -1.916636 409 5267160 3305 56 279 9017
-8.1234035 3.3930876 -1.916853 399 5364240 3234 56 268 9018
-8.1105175 3.4463048 -1.9188055 383 5461150 3111 56 261 9027
-8.1071386 3.5037522 -1.9231445 407 5559960 3314 56 234 9047
-8.101573 3.5605021 -1.9270496 369 5656370 3005 56 269 9065
-8.0991812 3.6189086 -1.9318225 447 5754360 3682 56 238 9087
-8.0812674 3.6705551 -1.9329073 458 5851020 3766 56 284 9092
-8.0736589 3.7270286 -1.9365954 446 5949310 3681 56 267 9109
-8.0691967 3.7852056 -1.9411514 423 6047610 3512 56 308 9130
-8.0546312 3.8388467 -1.9433209 419 6144370 3479 56 284 9140
-8.0300465 3.8877714 -1.943104 470 6241500 3911 56 307 9139
-8.0183039 3.9430015 -1.9461412 401 6339320 3331 56 283 9153
-8.0481024 4.0191731 -1.9595922 444 6436420 3742 56 259 9215
-8.0259018 4.0698042 -1.9602431 444 6533680 3744 56 284 9218
-7.9981751 4.1176329 -1.9595922 416 6632370 3510 56 295 9215
-7.9710293 4.1657267 -1.9591583 454 6729130 3828 56 230 9213
-7.9599781 4.2223358 -1.9628465 412 6826410 3504 56 301 9230
-7.9562678 4.2831306 -1.9684873 427 6925120 3644 56 299 9256
-7.9589629 4.3477836 -1.9758636 403 7022910 3464 56 302 9290
-7.9329896 4.3970103 -1.9760805 421 7121400 3613 56 278 9291
-7.9041586 4.4446464 -1.9756466 407 7217820 3507 56 294 9289
-7.8775859 4.4935455 -1.9758636 383 7315490 3292 56 286 9290
-7.85747 4.5461974 -1.9778161 394 7412720 3392 56 311 9299
-7.8681536 4.6170545 -1.9877958 406 7509950 3531 56 303 9345
-7.8447089 4.6682415 -1.9890976 391 7606660 3400 56 252 9351
-7.8401542 4.730916 -1.9953891 388 7704900 3394 56 257 9380
-7.8034844 4.7743473 -1.9934366 396 7801710 3449 56 254 9371
-7.7815084 4.8267708 -1.9953891 384 7899240 3357 56 281 9380
-7.791409 4.8993731 -2.0058029 392 7997700 3454 56 285 9428
-7.7760167 4.9565339 -2.0097079 426 8095060 3780 56 272 9446
-7.7429976 5.002564 -2.009057 388 8193620 3439 56 264 9443
-7.7219563 5.0563979 -2.0116603 412 8290700 3679 56 291 9455
-7.7062387 5.1139412 -2.0157826 399 8388320 3570 56 267 9474
-7.7030649 5.1801982 -2.0233757 437 8485850 3936 56 308 9509
-7.6792011 5.2328639 -2.0255454 375 8583840 3393 56 290 9519
-7.6589971 5.2882051 -2.0287995 401 8681370 3630 56 310 9534
-7.6456013 5.3485317 -2.0340064 408 8779980 3711 56 318 9558
-7.595119 5.3829236 -2.0292335 435 8876640 3942 56 295 9536
-7.5833554 5.4447994 -2.0350912 450 8975290 4101 56 297 9563
-7.566381 5.5032868 -2.0396471 420 9073950 3845 56 279 9584
-7.5167542 5.5380278 -2.0353081 454 9170560 4122 56 278 9564
-7.4873257 5.5875487 -2.0366096 383 9269320 3494 56 293 9570
-7.4770393 5.6516352 -2.0433352 439 9365980 4039 56 328 9601
-7.4724483 5.7205524 -2.0517962 409 9463200 3774 56 333 9640
-7.486577 5.8045807 -2.0656812 383 9559910 3590 56 312 9704
-7.4692454 5.8648787 -2.070888 377 9658210 3539 56 343 9728
-7.4422865 5.9178901 -2.0734913 356 9755370 3361 56 311 9740
-7.4240813 5.9781394 -2.0786982 417 9853780 3969 56 315 9764
-7.3940687 6.0291328 -2.0806508 417 9951360 3978 56 289 9773
-7.3456454 6.0650644 -2.0773964 426 10049400 4031 56 307 9758
-7.2880731 6.0931149 -2.0715389 479 10147690 4531 56 296 9731
-7.2177687 6.1099644 -2.0619929 486 10244200 4534 56 324 9687
-7.1504979 6.1287227 -2.0533149 504 10341680 4674 56 320 9647
-7.0773721 6.1417675 -2.0429013 528 10438390 4850 56 309 9599
-7.0380869 6.1837893 -2.0424674 558 10536580 5133 56 310 9597
-6.9905305 6.2184224 -2.0396471 562 10633440 5135 56 344 9584
-6.8956695 6.2102375 -2.0227249 614 10731440 5508 56 391 9506
-6.8271403 6.2248049 -2.013613 698 10829950 6220 56 402 9464
-6.7579756 6.2381039 -2.0042841 727 10927010 6421 56 408 9421
-6.7259908 6.2854519 -2.0062366 747 11023650 6619 56 419 9430
-6.67028 6.3105006 -2.0010297 679 11120960 5982 56 439 9406
-6.610991 6.3317266 -1.9947382 639 11218570 5585 56 448 9377
-6.5671101 6.3674145 -1.9932196 679 11316200 5939 56 401 9370
-6.5307031 6.4103251 -1.9940875 637 11415080 5582 56 430 9374
-6.5639472 6.5225315 -2.0168672 669 11513000 6005 56 434 9479
-6.5478868 6.5869179 -2.0244606 597 11609930 5388 56 425 9514
-6.5093989 6.6290603 -2.0251114 630 11708010 5682 56 424 9517
-6.4420967 6.6415462 -2.0166502 627 11804520 5610 56 398 9478
-6.3904195 6.6696706 -2.0131791 712 11903180 6350 56 429 9462
-6.3305883 6.6889019 -2.0071044 660 11999590 5867 56 441 9434
-6.2754288 6.7126436 -2.0025485 650 12098180 5737 56 403 9413
-6.2261763 6.7424154 -1.999945 665 12197190 5853 56 419 9401
-6.162324 6.7559676 -1.9925687 650 12294170 5679 56 436 9367
-6.1161804 6.7885747 -1.9910501 622 12392930 5443 56 430 9360
