# .PCD v0.7 - Point Cloud Data file format
VERSION 0.7
FIELDS x y z intensity t reflectivity ring ambient range
SIZE 4 4 4 4 4 2 1 2 4
TYPE F F F F U U U U U
COUNT 1 1 1 1 1 1 1 1 1
WIDTH 767
HEIGHT 1
VIEWPOINT 0 0 0 1 0 0 0
POINTS 767
DATA ascii
-9.5765209 -5.8021779 -1.4914936 578 92254320 7345 47 443 11301
-9.6510649 -5.7666888 -1.4977206 576 92351750 7371 47 403 11347
-9.7417498 -5.7400603 -1.5065197 526 92449690 6819 47 391 11412
-9.775074 -5.6791825 -1.506249 573 92546080 7429 47 391 11410
-9.8398256 -5.6363354 -1.5109869 525 92643930 6857 47 403 11445
-9.8897533 -5.5846238 -1.5134236 514 92741250 6728 47 454 11463
-9.954133 -5.5407043 -1.5181615 544 92839850 7171 47 410 11498
-9.9783878 -5.4742794 -1.5166724 598 92937440 7860 47 386 11487
-9.9934874 -5.4030533 -1.5138296 563 93035980 7381 47 410 11466
-10.025578 -5.341167 -1.5136943 526 93133460 6876 47 447 11465
-10.042371 -5.2712607 -1.5112576 509 93229820 6635 47 420 11447
-10.088607 -5.216825 -1.5134236 499 93327400 6549 47 409 11463
-10.116895 -5.1530252 -1.5128821 534 93425490 7004 47 416 11459
-10.181089 -5.1072922 -1.5178907 572 93523220 7543 47 372 11496
-10.233555 -5.0552597 -1.5211396 543 93619060 7199 47 407 11520
-10.36595 -5.0417833 -1.5365717 529 93717820 7115 47 387 11634
-10.482477 -5.0191674 -1.5495672 521 93815300 7121 47 398 11730
-10.583878 -4.9881282 -1.5602615 563 93911860 7834 47 377 11809
-10.643046 -4.9364352 -1.5645933 612 94007290 8553 47 341 11841
-10.70378 -4.8850265 -1.5691959 568 94106000 7963 47 380 11875
-10.741688 -4.8229103 -1.5704142 578 94202460 8128 47 401 11884
-10.793736 -4.7669182 -1.5737984 549 94300750 7765 47 403 11909
-10.826417 -4.7021785 -1.5743399 515 94398600 7275 47 382 11913
-10.907001 -4.6578441 -1.582056 553 94495910 7893 47 357 11970
-10.995668 -4.6161494 -1.5909904 541 94593080 7821 47 358 12036
-11.036608 -4.5538859 -1.5928856 604 94690040 8741 47 344 12050
-11.023943 -4.4696975 -1.5869293 563 94788040 8094 47 404 12006
-11.009742 -4.3854699 -1.5808376 537 94884900 7638 47 355 11961
-11.014299 -4.3091674 -1.5775888 573 94983310 8128 47 407 11937
-11.032208 -4.2383051 -1.5763705 550 95081140 7789 47 402 11928
-11.060787 -4.1715822 -1.5767766 568 95177500 8037 47 397 11931
-11.088034 -4.1043239 -1.5770473 580 95276260 8237 47 410 11933
-11.109284 -4.0348587 -1.5765058 562 95373830 7988 47 422 11929
-11.129166 -3.9649544 -1.575829 569 95469360 8026 47 400 11924
-11.179474 -3.9057443 -1.5796193 557 95567570 7908 47 395 11952
-11.219163 -3.8425336 -1.5819206 583 95664430 8336 47 360 11969
-11.243468 -3.7739372 -1.582056 570 95761190 8130 47 415 11970
-11.244766 -3.6977572 -1.5789425 565 95859340 8015 47 402 11947
-11.263472 -3.6274757 -1.578401 584 95956860 8294 47 398 11943
-11.246776 -3.546078 -1.5728508 557 96054540 7844 47 377 11902
-11.252228 -3.4720349 -1.5705496 567 96152730 7975 47 392 11885
-11.290393 -3.408082 -1.5729862 546 96249240 7688 47 390 11903
-11.38331 -3.360064 -1.5832744 593 96347390 8465 47 361 11979
-11.461782 -3.3069124 -1.5915319 601 96445080 8682 47 358 12040
-11.599152 -3.2695942 -1.6081823 567 96542710 8352 47 394 12163
-11.685862 -3.2167733 -1.6176583 534 96640750 7958 47 372 12233
-11.763747 -3.160696 -1.6259158 509 96737860 7670 47 289 12294
-11.861508 -3.1090608 -1.6370161 380 96834520 5769 47 268 12376
-11.961955 -3.05708 -1.6485225 354 96933330 5483 47 217 12461
-12.073745 -3.0068569 -1.6616534 348 97031430 5467 47 267 12558
-12.182477 -2.9546752 -1.6743782 339 97128500 5408 47 251 12652
-12.319947 -2.9081023 -1.691164 320 97226280 5186 47 263 12776
-12.41095 -2.8493078 -1.7014521 344 97321820 5645 47 258 12852
-12.446571 -2.7772028 -1.7040241 251 97421800 4125 47 230 12871
-12.449821 -2.6978414 -1.7021289 252 97519690 4148 47 238 12857
-12.441901 -2.6163011 -1.6987447 265 97616740 4342 47 264 12832
-12.428596 -2.5339699 -1.6946836 265 97714230 4323 47 260 12802
-12.428358 -2.4545891 -1.6925176 222 97811510 3614 47 222 12786
-12.424695 -2.3747485 -1.6899457 167 97908070 2692 47 211 12767
-12.391293 -2.2896426 -1.6833125 308 98007250 4951 47 221 12718
-12.380724 -2.2092152 -1.6799283 279 98104670 4480 47 224 12693
-12.389164 -2.1323662 -1.6792514 299 98202920 4780 47 241 12688
-12.424496 -2.0600367 -1.6823649 301 98299530 4847 47 230 12711
-12.4506 -1.9859484 -1.6842601 320 98396390 5151 47 216 12725
-12.445902 -1.9069635 -1.6819588 301 98494680 4845 47 230 12708
-12.454428 -1.8301286 -1.6815528 331 98591540 5326 47 235 12705
-12.477197 -1.7553324 -1.6831772 307 98687540 4916 47 232 12717
-12.502461 -1.6807218 -1.6852077 318 98785010 5127 47 198 12732
-12.481091 -1.599943 -1.6808759 297 98882340 4759 47 227 12700
-12.527062 -1.5277709 -1.6858846 295 98981520 4755 47 215 12737
-12.539154 -1.4512194 -1.6862906 280 99079440 4514 47 220 12740
-12.545853 -1.3740374 -1.6860199 316 99176100 5094 47 234 12738
-12.549119 -1.2965221 -1.6853431 277 99274610 4475 47 230 12733
-12.546977 -1.2185395 -1.6839894 294 99371320 4744 47 226 12723
-12.561125 -1.1421582 -1.684937 287 99468950 4619 47 228 12730
-12.568884 -1.0651468 -1.6850723 264 99567510 4245 47 237 12731
-12.582097 -0.98854923 -1.6860199 284 99662990 4577 47 218 12738
-12.591878 -0.91161478 -1.6865615 248 99760070 3995 47 221 12742
-12.593281 -0.83407313 -1.6860199 245 99856460 3963 47 205 12738
-12.621898 -0.758214 -1.6892688 441 99954600 7145 47 261 12762
-12.444609 0.70358235 -1.7710142 218 0 3419 48 169 12595
-12.45191 0.78067172 -1.7727382 200 96560 3154 48 178 12607
-12.439974 0.85658413 -1.7717326 215 193100 3382 48 112 12600
-12.460142 0.93482512 -1.7754679 215 290430 3390 48 159 12626
-12.448254 1.0107806 -1.7746059 244 389240 3863 48 164 12620
-12.452662 1.0880909 -1.7761862 231 486510 3677 48 181 12631
-12.448707 1.1647553 -1.7766172 236 583740 3727 48 170 12634
-12.474807 1.2444596 -1.7815019 220 681020 3508 48 165 12668
-12.440365 1.3181628 -1.7776228 211 778340 3350 48 159 12641
-12.479248 1.3997689 -1.7845188 221 875970 3536 48 157 12689
-12.505803 1.4805048 -1.7896907 203 972730 3264 48 168 12725
-12.495502 1.5570886 -1.7895471 204 1070980 3263 48 167 12724
-12.493563 1.634758 -1.7906964 213 1168770 3428 48 179 12732
-12.49114 1.7124622 -1.7918458 180 1265110 2884 48 151 12740
-12.539174 1.7975039 -1.8004657 186 1363210 3025 48 156 12800
-12.509313 1.8716254 -1.797736 188 1460780 3051 48 142 12781
-12.526927 1.9529212 -1.8020459 220 1559540 3587 48 169 12811
-12.55476 2.036247 -1.8079363 183 1656100 3000 48 156 12852
-12.54886 2.1143947 -1.808942 193 1753950 3151 48 165 12859
-12.510304 2.1869206 -1.8052067 185 1852960 3037 48 180 12833
-12.544365 2.2722878 -1.8122462 219 1949970 3626 48 174 12882
-12.539913 2.3510401 -1.8136829 179 2048630 2949 48 179 12892
-12.554397 2.4335911 -1.8179928 209 2145490 3448 48 172 12922
-12.584835 2.5197122 -1.8247451 152 2242920 2532 48 165 12969
-12.575921 2.5982859 -1.8257507 139 2339940 2319 48 144 12976
-12.559742 2.6754014 -1.8257507 181 2438440 3023 48 171 12976
-12.572088 2.7587817 -1.8300607 205 2536280 3427 48 162 13006
-12.619598 2.8504839 -1.8396863 229 2633140 3855 48 164 13073
-12.612473 2.9303269 -1.8412666 224 2730990 3792 48 170 13084
-12.608694 3.0111096 -1.8434216 205 2828410 3490 48 182 13099
-12.589981 3.0884182 -1.8434216 203 2926660 3457 48 177 13099
-12.591907 3.170929 -1.8465823 201 3023820 3419 48 162 13121
-12.601915 3.2558079 -1.8510358 217 3122430 3726 48 181 13152
-12.653446 3.352082 -1.8618108 229 3221600 3946 48 164 13227
-12.662247 3.4376991 -1.8662643 235 3318000 4102 48 187 13258
-12.648542 3.5174501 -1.8674138 216 3416510 3753 48 200 13266
-12.659082 3.6042099 -1.8722984 202 3513420 3561 48 191 13300
-12.667132 3.6906772 -1.8768957 204 3611360 3599 48 175 13332
-12.7021 3.7855773 -1.8856592 217 3708270 3863 48 184 13393
-12.677686 3.8631561 -1.8855156 215 3805900 3828 48 181 13392
-12.702875 3.9561775 -1.8929862 236 3903230 4221 48 168 13444
-12.716083 4.046051 -1.8987328 208 4001470 3751 48 194 13484
-12.726781 4.1356239 -1.9041921 245 4099410 4469 48 181 13522
-12.717134 4.2189345 -1.9066343 213 4196170 3873 48 197 13539
-12.7285 4.3095832 -1.9123809 220 4294830 4046 48 180 13579
-12.746716 4.4031153 -1.919277 228 4391690 4189 48 162 13627
-12.765194 4.4973612 -1.9263165 223 4489640 4141 48 186 13676
-12.794169 4.5960145 -1.9350801 229 4588400 4255 48 172 13737
-12.778737 4.6791964 -1.9370914 270 4686440 5075 48 186 13751
-12.768329 4.7644377 -1.9399648 223 4782890 4201 48 171 13771
-12.76198 4.8514862 -1.9435563 232 4880480 4385 48 188 13796
-12.76058 4.9407797 -1.94801 211 4977960 4001 48 197 13827
-12.751198 5.0273342 -1.9513143 212 5075630 4057 48 174 13850
-12.770622 5.1257567 -1.9592159 195 5173630 3743 48 165 13905
-12.751756 5.2092595 -1.9612272 228 5270850 4368 48 177 13919
-12.742397 5.2969031 -1.9648188 227 5368060 4382 48 189 13944
-12.776192 5.4031324 -1.9753064 200 5465060 3896 48 199 14017
-12.773706 5.4947219 -1.980191 217 5563900 4254 48 178 14051
-12.782363 5.5916405 -1.9869432 230 5660710 4539 48 187 14098
-12.764089 5.6772065 -1.9895293 222 5758490 4409 48 200 14116
-12.76418 5.7713218 -1.9951322 227 5855200 4516 48 182 14155
-12.739318 5.8544922 -1.9968562 213 5953660 4242 48 190 14167
-12.747988 5.9534898 -2.0040395 231 6052050 4657 48 181 14217
-12.728205 6.0396595 -2.0067692 215 6148860 4321 48 203 14236
-12.772026 6.156755 -2.0198426 231 6246090 4691 48 171 14327
-12.72601 6.2310896 -2.0185497 226 6343990 4598 48 196 14318
-12.7345 6.3324142 -2.0261638 212 6441260 4361 48 213 14371
-12.788158 6.4572749 -2.0412488 217 6538520 4505 48 236 14476
-12.78088 6.5523267 -2.0465643 210 6637230 4410 48 187 14513
-12.765892 6.6438761 -2.0507307 217 6734140 4556 48 179 14542
-12.76426 6.7428846 -2.0571957 232 6831520 4897 48 215 14587
-12.65113 6.7827291 -2.0454152 261 6930280 5447 48 242 14505
-12.490184 6.7954259 -2.025733 271 7028220 5551 48 246 14368
-12.368549 6.82793 -2.0125158 267 7126830 5421 48 232 14276
-12.22195 6.8451729 -1.9951322 392 7223280 7787 48 275 14155
-12.063562 6.8540316 -1.9757373 456 7321070 8944 48 347 14020
-11.980125 6.904202 -1.9688414 424 7418450 8258 48 347 13972
-11.937536 6.9775805 -1.9688414 447 7515730 8684 48 368 13972
-11.999204 7.1127725 -1.9865123 394 7612540 7791 48 329 14095
-11.996894 7.2112489 -1.9935519 400 7710830 7946 48 325 14144
-11.865385 7.2316709 -1.9787544 387 7807790 7583 48 389 14041
-11.830891 7.3105822 -1.9804783 416 7905320 8155 48 348 14053
-11.684338 7.3194618 -1.9630948 429 8003930 8307 48 346 13932
-11.626676 7.3830595 -1.9609399 409 8101350 7859 48 369 13917
-11.572834 7.4489036 -1.9595032 425 8200070 8180 48 350 13907
-11.507019 7.5067949 -1.9560553 419 8297190 8057 48 343 13883
-11.469822 7.5832634 -1.9576355 436 8394870 8357 48 358 13894
-11.431296 7.6590071 -1.9590722 427 8492500 8211 48 378 13904
-11.437304 7.7651396 -1.9684105 406 8590590 7888 48 317 13969
-11.401671 7.8435855 -1.9705654 405 8687000 7899 48 356 13984
-11.334658 7.9003806 -1.9672611 387 8786880 7502 48 356 13961
-11.34417 8.0108852 -1.977605 459 8883640 9015 48 373 14033
-11.299631 8.0837965 -1.978467 405 8982350 7961 48 355 14039
-11.249016 8.1523962 -1.9783233 418 9081110 8195 48 360 14038
-11.190007 8.2148228 -1.976743 379 9177770 7399 48 339 14027
-11.160037 8.2986841 -1.9804783 385 9276680 7559 48 369 14053
-11.11286 8.3699818 -1.9811966 368 9372060 7206 48 390 14058
-11.040837 8.4224043 -1.9774613 370 9470720 7219 48 385 14032
-11.007745 8.5045128 -1.9809093 397 9567530 7776 48 391 14056
-10.94912 8.5670166 -1.9797601 411 9665820 8048 48 369 14048
-10.882386 8.6229734 -1.977174 379 9761510 7398 48 363 14030
-10.809977 8.674099 -1.9735824 358 9861560 6979 48 365 14005
-10.777286 8.7571163 -1.9774613 335 9959190 6552 48 368 14032
-10.74169 8.838171 -1.9809093 366 10056100 7172 48 348 14056
-10.699423 8.9140511 -1.9832079 374 10155770 7362 48 371 14072
-10.654359 8.9878292 -1.9850756 379 10252280 7463 48 324 14085
-10.598257 9.0523911 -1.9849319 344 10349810 6763 48 353 14084
-10.559729 9.1321411 -1.9882363 388 10446620 7660 48 357 14107
-10.506474 9.1993704 -1.9888109 358 10544830 7087 48 357 14111
-10.453532 9.2669458 -1.9895293 371 10641890 7374 48 336 14116
-10.392056 9.3269472 -1.9886672 366 10739930 7229 48 339 14110
-10.317054 9.3745623 -1.9852192 335 10838540 6607 48 346 14086
-10.26298 9.44104 -1.9859376 347 10935560 6869 48 350 14091
-10.189651 9.4896708 -1.9829206 338 11032420 6667 48 368 14070
-10.136992 9.5574455 -1.9840699 333 11129740 6557 48 366 14078
-10.103211 9.6433821 -1.9890983 331 11227440 6550 48 362 14113
-10.027483 9.6893749 -1.9857939 392 11325160 7737 48 376 14090
-9.9197388 9.7036591 -1.9760247 396 11424120 7744 48 363 14022
-9.8586054 9.7629499 -1.9757373 390 11522120 7623 48 361 14020
-9.8257704 9.850585 -1.9813403 361 11619080 7076 48 346 14059
-9.8352909 9.9818916 -1.9958506 365 11717270 7280 48 337 14160
-9.7586737 10.026449 -1.9926898 391 11813830 7759 48 326 14138
-9.6523905 10.039764 -1.9833516 379 11912640 7445 48 352 14073
-9.5940123 10.10239 -1.9840699 368 12009000 7234 48 345 14078
-9.5832987 10.215924 -1.9949886 414 12107700 8232 48 356 14154
-9.470664 10.220815 -1.9843574 355 12205590 6975 48 362 14080
-9.4218016 10.294065 -1.9873743 371 12303830 7351 48 376 14101
-9.3498344 10.342137 -1.9855067 410 12402740 8094 48 364 14088
-9.306632 10.422196 -1.9899603 404 12499970 7989 48 375 14119
-9.2667265 10.506567 -1.9952759 361 12598310 7175 48 342 14156
-9.1624355 10.517709 -1.9865123 353 12695090 6991 48 357 14095
-9.1287069 10.60974 -1.9934082 405 12792100 8081 48 348 14143
-9.0954742 10.703261 -2.0005915 378 12891010 7570 48 371 14193
-9.0143614 10.740675 -1.9971435 364 12988040 7283 48 369 14169
-8.9527082 10.801118 -1.9981492 357 13085250 7109 48 374 14176
-8.8900261 10.860442 -1.9990112 342 13182480 6814 48 373 14182
-8.8120232 10.900932 -1.9964252 306 13281490 6079 48 346 14164
-8.730154 10.936234 -1.9929773 343 13378510 6809 48 394 14140
-8.694128 11.029233 -2.0003042 371 13477110 7445 48 378 14191
-8.6548576 11.119078 -2.0070565 370 13576180 7442 48 335 14238
-8.581646 11.165696 -2.0059071 321 13672630 6462 48 334 14230
-8.4633236 11.152707 -1.9939829 359 13771860 7120 48 377 14147
-8.3982925 11.209179 -1.9948449 364 13868770 7271 48 348 14153
-8.3352404 11.268456 -1.9962815 415 13966460 8278 48 381 14163
-8.2624397 11.314592 -1.9954195 415 14065250 8278 48 339 14157
-8.143095 11.296034 -1.9830643 334 14161960 6582 48 407 14071
-8.0994482 11.382072 -1.9895293 325 14261490 6431 48 373 14116
-7.89466 11.239619 -1.9554806 214 14358720 4063 48 466 13879
-7.9016566 11.397648 -1.9748755 325 14457060 6335 48 395 14014
-7.8030758 11.404262 -1.9675485 212 14555470 4097 48 447 13963
-7.7340608 11.453566 -1.9678358 272 14652030 5269 48 323 13965
-7.6669297 11.505747 -1.9686978 314 14749810 6103 48 384 13971
-7.5722671 11.51619 -1.9623765 297 14848100 5742 48 337 13927
-7.5483179 11.634666 -1.9748755 298 14945600 5814 48 345 14014
-7.460783 11.655757 -1.9705654 227 15044990 4429 48 405 13984
-7.3426304 11.627679 -1.9579229 227 15142430 4364 48 463 13896
-7.2612052 11.656552 -1.9551933 244 15240480 4665 48 430 13877
-7.1931715 11.70679 -1.9561989 239 15337500 4576 48 416 13884
-7.1247945 11.756631 -1.9572046 271 15434560 5168 48 362 13891
-7.0723209 11.833257 -1.9628075 287 15532090 5539 48 405 13930
-6.9317536 11.761328 -1.9434127 348 15629940 6583 48 355 13795
-6.8589597 11.802783 -1.943269 332 15727560 6260 48 345 13794
-6.7770634 11.828331 -1.9405394 322 15823920 6050 48 365 13775
-6.7145782 11.887788 -1.9435563 307 15923280 5805 48 348 13796
-6.6877189 12.011772 -1.9573482 369 16020880 7080 48 362 13892
-6.5610509 11.956276 -1.9414014 379 16118040 7140 48 352 13781
-6.5167484 12.050282 -1.9503086 338 16215680 6453 48 372 13843
-6.4468746 12.097901 -1.9516016 321 16312290 6128 48 301 13852
-6.3854012 12.161765 -1.9556242 312 16411150 5986 48 378 13880
-6.3256598 12.229724 -1.9603652 302 16508580 5828 48 338 13913
-6.2527466 12.272717 -1.9610835 270 16603860 5181 48 409 13918
-6.2070575 12.370116 -1.9707091 311 16704030 6042 48 352 13985
-6.1516414 12.44967 -1.9774613 344 16802540 6708 48 377 14032
-5.9768701 12.285169 -1.9448494 310 16899450 5848 48 365 13805
-5.8953934 12.309114 -1.9428381 299 16997400 5645 48 370 13791
-5.7602625 12.218837 -1.9225812 272 17095910 5023 48 390 13650
-5.8021984 12.506217 -1.9629512 326 17193630 6298 48 399 13931
-5.7286396 12.548786 -1.9641005 240 17291830 4618 48 379 13939
-5.5899158 12.446476 -1.9422634 230 17389050 4349 48 372 13787
-5.5726161 12.614519 -1.9635258 350 17487680 6762 48 316 13935
-5.4958987 12.65029 -1.9638132 344 17585960 6625 48 337 13937
-5.3913541 12.620977 -1.9539002 290 17682520 5532 48 388 13868
-5.3448434 12.72773 -1.9655372 317 17781110 6120 48 398 13949
-5.2787271 12.789559 -1.9701344 284 17879410 5512 48 351 13981
-5.1960616 12.81162 -1.9685541 238 17976530 4620 48 379 13970
-5.143723 12.909455 -1.978898 270 18074680 5275 48 402 14042
-4.9796748 12.7242 -1.9451367 208 18170990 3940 48 383 13807
-4.8074484 12.509712 -1.9070654 245 18269480 4448 48 395 13542
-4.7815919 12.674163 -1.9280405 270 18367990 5022 48 343 13688
-4.7497735 12.827624 -1.9472916 285 18466140 5383 48 375 13822
-4.6615148 12.830482 -1.943269 250 18563350 4711 48 391 13794
-4.5846939 12.864437 -1.944131 272 18661090 5137 48 372 13800
-4.5559435 13.036199 -1.9662554 275 18759430 5330 48 377 13954
-4.4979973 13.128508 -1.9761684 304 18856610 5964 48 309 14023
-4.3981457 13.098631 -1.9674048 256 18953820 4960 48 412 13962
-4.2369947 12.880008 -1.9299082 277 19052580 5165 48 328 13701
-4.1724486 12.950977 -1.9368041 216 19149290 4049 48 436 13749
-4.0628443 12.88101 -1.9222939 244 19247230 4521 48 375 13648
-3.9916108 12.931229 -1.9261729 239 19345480 4430 48 360 13675
-4.0354648 13.363804 -1.9880927 327 19442190 6467 48 341 14106
-3.9505882 13.378822 -1.986656 307 19541220 6064 48 325 14096
-3.8489425 13.335301 -1.9764557 264 19640230 5169 48 368 14025
-3.756305 13.320567 -1.9707091 252 19737440 4908 48 354 13985
-3.5775712 12.991292 -1.9176966 216 19835650 3963 48 371 13616
-3.5648215 13.262443 -1.9551933 348 19933740 6662 48 349 13877
-3.4713318 13.238116 -1.9482973 323 20030130 6132 48 390 13829
-3.4022927 13.307107 -1.9554806 268 20129230 5140 48 365 13879
-3.3377991 13.396873 -1.9658245 271 20227170 5209 48 387 13951
-3.2422371 13.362283 -1.9576355 317 20324210 6086 48 316 13894
-3.1285801 13.248047 -1.9376661 296 20421640 5565 48 328 13755
-3.064729 13.343192 -1.9490156 288 20520090 5474 48 339 13834
-2.9549932 13.237148 -1.9304827 257 20617930 4784 48 376 13705
-2.8707814 13.24149 -1.9284714 283 20715710 5270 48 331 13691
-2.749558 13.069042 -1.900313 290 20814170 5242 48 360 13495
-2.6331308 12.908217 -1.8740224 261 20912880 4598 48 408 13312
-2.6027818 13.171701 -1.9106569 313 21009520 5726 48 333 13567
-2.5403087 13.283654 -1.9248799 207 21108030 3823 48 378 13666
-2.4733219 13.377816 -1.9365168 269 21206990 5047 48 335 13747
-2.3913646 13.393715 -1.9366604 264 21304450 4973 48 335 13748
-2.2918439 13.307682 -1.9218628 282 21401600 5228 48 374 13645
-2.2067463 13.300992 -1.9188459 242 21500040 4473 48 347 13624
-2.1216614 13.292782 -1.9156853 249 21598030 4550 48 354 13602
-2.0369103 13.285007 -1.9126683 263 21694690 4811 48 363 13581
-1.9782383 13.452933 -1.9355111 269 21790170 5043 48 333 13740
-1.8854508 13.392301 -1.9248799 328 21889350 6103 48 370 13666
-1.8325202 13.621355 -1.9567735 311 21988310 5964 48 316 13888
-1.7339288 13.515533 -1.9396774 335 22085220 6313 48 346 13769
-1.6446149 13.473854 -1.9320631 312 22183530 5858 48 303 13716
-1.5430176 13.320503 -1.9082147 329 22282120 6010 48 305 13550
-1.4659976 13.373005 -1.914536 277 22379350 5085 48 329 13594
-1.3857461 13.399467 -1.9171219 321 22476010 5912 48 342 13612
-1.3127848 13.503262 -1.9310575 325 22574440 6081 48 281 13709
-1.2339399 13.555412 -1.9375224 317 22672050 5965 48 311 13754
-1.1519126 13.576534 -1.9395337 249 22770020 4663 48 346 13768
-1.0657951 13.54783 -1.9343618 245 22865870 4581 48 352 13732
-0.98993945 13.654792 -1.9490156 267 22963760 5075 48 326 13834
-0.89861149 13.547051 -1.9324942 278 23062520 5215 48 338 13719
-0.81731206 13.582933 -1.9369477 243 23160570 4554 48 359 13750
-0.73182082 13.548165 -1.9312011 265 23257330 4944 48 339 13710
-0.65373272 13.65817 -1.9465734 316 23355620 6022 48 296 13817
-0.57139802 13.697519 -1.9517453 265 23453100 5044 48 367 13853
-0.48828894 13.72747 -1.9556242 225 23550990 4295 48 353 13880
-0.40788358 13.860783 -1.974588 299 23647950 5836 48 320 14012
-0.32126543 13.795748 -1.9648188 256 23745130 4962 48 321 13944
-0.2364074 13.785585 -1.9630948 280 23844190 5418 48 328 13932
-0.15261781 13.860004 -1.973726 253 23942380 4929 48 315 14006
-0.067671515 13.881462 -1.976743 257 24039190 5022 48 319 14027
0.017407749 13.808384 -1.9661118 256 24136840 4970 48 312 13953
0.10217837 13.813954 -1.9669738 242 24235130 4703 48 306 13959
0.18758316 13.860565 -1.9738697 257 24333470 5011 48 298 14007
0.27262646 13.859154 -1.9738697 264 24431570 5164 48 322 14007
0.35765949 13.85722 -1.9738697 194 24528080 3786 48 348 14007
0.44122237 13.809265 -1.9672611 199 24627750 3847 48 301 13961
0.52677631 13.828053 -1.9704218 269 24725850 5228 48 302 13983
0.61148232 13.821595 -1.9699907 227 24823990 4383 48 317 13980
0.69812363 13.854153 -1.9753064 241 24922650 4721 48 315 14017
0.78306204 13.84862 -1.9751627 245 25019710 4783 48 293 14016
0.87124455 13.894914 -1.9826334 321 25118370 6318 48 314 14068
0.95852733 13.918925 -1.9869432 185 25215950 3648 48 400 14098
1.0401345 13.862453 -1.9796164 277 25313430 5429 48 333 14047
1.1310253 13.927814 -1.990104 278 25411670 5496 48 268 14120
1.2137909 13.890051 -1.9856503 229 25508030 4511 48 319 14089
1.3005643 13.899092 -1.9880927 299 25605460 5901 48 279 14106
1.3857247 13.889866 -1.9879489 252 25704220 4996 48 333 14105
1.4716556 13.88799 -1.9889545 292 25802210 5781 48 314 14112
1.549337 13.811825 -1.9791853 274 25900040 5338 48 274 14044
1.6087936 13.588799 -1.94801 274 25998180 5199 48 352 13827
1.6731641 13.426459 -1.9257418 202 26095360 3729 48 403 13672
1.7050288 13.030308 -1.8692814 199 26194690 3469 48 373 13279
1.7166312 12.521534 -1.7962993 163 26292660 2631 48 426 12771
1.7857022 12.456887 -1.7883978 234 26390310 3747 48 376 12716
1.8632747 12.453526 -1.7895471 254 26488080 4100 48 315 12724
1.9707646 12.641331 -1.8188548 295 26585560 4920 48 304 12928
2.0513048 12.64756 -1.8215845 298 26681870 4960 48 356 12947
2.1484451 12.750863 -1.8386806 245 26780210 4146 48 361 13066
2.2053325 12.615586 -1.8207225 239 26877940 3968 48 355 12941
2.2629354 12.492755 -1.8046319 207 26976750 3372 48 359 12829
2.3576076 12.574929 -1.8188548 238 27075110 3961 48 344 12928
2.3691599 12.222135 -1.7688593 408 27172390 6437 48 260 12580
2.4289496 12.13168 -1.7576534 482 27270020 7486 48 242 12502
2.4706929 11.958577 -1.7342359 373 27367440 5670 48 297 12339
2.6032155 12.220979 -1.7754679 534 27464100 8494 48 251 12626
2.6868525 12.244407 -1.7813581 508 27561880 8119 48 230 12667
2.7913766 12.358005 -1.800753 314 27659720 5136 48 303 12802
2.9211419 12.572952 -1.8353764 297 27758280 5012 48 272 13043
3.0258255 12.670297 -1.8526162 231 27856310 3973 48 309 13163
3.0759189 12.539042 -1.8358073 212 27954000 3583 48 404 13046
3.1486895 12.503618 -1.8333651 201 28056950 3386 48 407 13029
3.2129703 12.436156 -1.8261818 217 28149430 3618 48 373 12979
3.4610827 13.064789 -1.9235868 210 28246440 3907 48 405 13657
3.5876062 13.214258 -1.9493029 151 28344230 2880 48 410 13836
3.8518798 13.850815 -2.0485756 201 28442160 4211 48 396 14527
3.8590014 13.553758 -2.0073438 163 28540770 3277 48 394 14240
4.0282059 13.825305 -2.0520236 246 28638440 5182 48 374 14551
4.140101 13.891374 -2.0658154 285 28735770 6059 48 293 14647
4.2284327 13.876122 -2.0673959 313 28834580 6694 48 280 14658
4.3214426 13.875426 -2.0712748 310 28932320 6631 48 287 14685
4.3950944 13.812815 -2.0658154 320 29030570 6812 48 282 14647
4.4950609 13.832644 -2.0729988 327 29128400 7029 48 297 14697
4.5826569 13.813256 -2.0742917 333 29225220 7126 48 286 14706
4.6666923 13.783003 -2.0740044 290 29323300 6236 48 295 14704
4.7476201 13.74382 -2.0724242 330 29420180 7071 48 286 14693
4.8295588 13.707897 -2.0714185 290 29518470 6217 48 316 14686
4.9283018 13.718984 -2.0777397 257 29616860 5544 48 285 14730
5.1168709 13.97377 -2.121845 216 29713890 4811 48 259 15037
5.2637639 14.106217 -2.1472738 189 29811670 4334 48 200 15214
5.3618255 14.104179 -2.1520147 212 29909980 4912 48 196 15247
5.4586306 14.097777 -2.1561811 208 30007090 4815 48 193 15276
5.5482974 14.072304 -2.157474 190 30105180 4425 48 186 15285
5.6356449 14.040751 -2.1579051 192 30203280 4449 48 189 15288
5.720943 14.004074 -2.1576178 211 30300750 4906 48 119 15286
5.8211994 14.003431 -2.1630769 214 30398700 4984 48 201 15324
5.9127965 13.981121 -2.1652319 196 30495870 4591 48 214 15339
0 0 -0 475 30593400 0 48 162 0
0 0 -0 296 30690930 0 48 186 0
6.1743703 13.881672 -2.1670997 201 30788250 4701 48 178 15352
6.2704406 13.867871 -2.1709785 200 30886350 4692 48 183 15379
6.3640933 13.848019 -2.1739955 209 30982890 4935 48 219 15400
6.4439178 13.797949 -2.1722715 196 31080070 4621 48 213 15388
6.5310049 13.763515 -2.1731336 196 31179450 4622 48 228 15394
6.6230693 13.739227 -2.1757195 187 31277940 4426 48 190 15412
6.702024 13.687665 -2.1739955 194 31376300 4583 48 199 15400
6.810122 13.69502 -2.1818972 210 31474340 5000 48 191 15455
6.9033933 13.671527 -2.1849141 191 31572590 4533 48 200 15476
6.9912138 13.636836 -2.1862071 194 31671030 4638 48 181 15485
7.0679026 13.580515 -2.1840522 210 31769120 5004 48 222 15470
7.1686654 13.570142 -2.1895115 193 31865880 4601 48 194 15508
7.2644219 13.549448 -2.1933904 178 31963980 4254 48 199 15535
7.3474231 13.50462 -2.1933904 209 32061770 5031 48 178 15535
7.4397144 13.476609 -2.1962638 229 32158220 5518 48 225 15555
7.5329051 13.449701 -2.1994243 201 32254730 4818 48 166 15577
7.631424 13.431621 -2.2041652 224 32352570 5417 48 193 15610
7.7003517 13.361392 -2.2002864 199 32450910 4814 48 199 15583
7.783689 13.316456 -2.2007172 198 32549470 4752 48 160 15586
7.8702974 13.276958 -2.2021539 196 32647870 4748 48 208 15596
7.9424372 13.21315 -2.199568 240 32747290 5785 48 188 15578
7.9960623 13.119382 -2.1919537 337 32845390 8100 48 220 15525
8.0550804 13.035557 -2.1860635 308 32942200 7330 48 259 15484
8.0865746 12.908732 -2.1728463 375 33039730 8872 48 290 15392
8.1401625 12.818772 -2.1659503 340 33137400 7954 48 249 15344
8.197772 12.736132 -2.1603475 330 33236060 7672 48 284 15305
8.2552166 12.654097 -2.1548882 350 33333540 8126 48 273 15267
8.3283377 12.596601 -2.1537387 321 33430870 7436 48 303 15259
8.40382 12.542796 -2.1533077 320 33529110 7391 48 283 15256
8.4800673 12.490176 -2.1531641 326 33626850 7529 48 284 15255
8.5672035 12.453399 -2.1558938 301 33724530 6996 48 241 15274
8.6581688 12.421705 -2.1596291 294 33821760 6855 48 250 15300
8.722806 12.352179 -2.1567557 332 33920100 7691 48 298 15280
8.8502607 12.370858 -2.1696856 277 34018400 6503 48 310 15370
8.9364538 12.330745 -2.1722715 321 34115110 7523 48 263 15388
9.0400591 12.313969 -2.1791675 321 34211470 7567 48 282 15436
9.1355257 12.285268 -2.1840522 321 34309610 7646 48 291 15470
9.2214527 12.24321 -2.1866381 328 34406740 7855 48 291 15488
9.3036051 12.195839 -2.1883621 319 34504560 7637 48 247 15500
9.3710012 12.129127 -2.1866381 347 34602090 8270 48 258 15488
9.4354897 12.058929 -2.1843395 351 34699670 8350 48 254 15472
9.4963961 11.98452 -2.1813226 307 34797760 7258 48 227 15451
9.5586042 11.912132 -2.1787364 320 34895250 7576 48 218 15433
9.6333876 11.855561 -2.1791675 321 34992980 7574 48 245 15436
9.7323618 11.828323 -2.1852014 300 35091740 7134 48 253 15478
9.8142576 11.779789 -2.1873565 349 35189790 8326 48 245 15493
9.8997536 11.735232 -2.1903734 322 35286600 7698 48 247 15514
9.9773588 11.68104 -2.1916664 335 35384420 7997 48 245 15523
10.087687 11.66451 -2.2002864 303 35481970 7334 48 226 15583
10.129731 11.56889 -2.1938214 313 35580560 7532 48 231 15538
10.186739 11.490967 -2.1908045 319 35678200 7654 48 243 15517
10.29209 11.467278 -2.1984186 331 35775460 7992 48 267 15570
10.323656 11.361433 -2.1900861 297 35874070 7089 48 277 15512
10.397864 11.302972 -2.1910918 327 35973970 7844 48 266 15519
10.509516 11.284581 -2.2001426 331 36071700 8010 48 243 15582
10.609111 11.252284 -2.2066076 316 36169990 7656 48 284 15627
10.671121 11.179818 -2.2051709 309 36267780 7452 48 283 15617
10.729202 11.103456 -2.203016 338 36365930 8171 48 270 15602
10.853188 11.094712 -2.2146528 308 36463970 7522 48 250 15683
10.930808 11.037754 -2.2166641 286 36561700 6964 48 273 15697
10.99973 10.971873 -2.2169516 320 36660040 7830 48 264 15699
11.08024 10.91737 -2.219681 314 36757780 7744 48 296 15718
11.178934 10.880236 -2.226146 297 36856330 7324 48 255 15763
11.269027 10.834071 -2.2308869 310 36953820 7675 48 278 15796
11.328115 10.757907 -2.2294505 283 37051030 7019 48 268 15786
11.379475 10.674656 -2.226577 314 37149690 7745 48 276 15766
11.443307 10.603287 -2.2262897 296 37247490 7319 48 285 15764
11.577508 10.596343 -2.239938 329 37344910 8241 48 270 15859
11.689294 10.567577 -2.2491326 367 37442840 9223 48 256 15923
11.738413 10.481812 -2.2461157 316 37541500 7929 48 284 15902
11.756488 10.369007 -2.2372084 331 37638930 8270 48 277 15840
11.827353 10.303175 -2.2386451 312 37736300 7777 48 282 15850
11.973622 10.30205 -2.2545917 297 37833680 7504 48 280 15961
11.905386 10.11689 -2.229594 313 37931870 7767 48 273 15787
11.971028 10.04683 -2.2303123 324 38029300 8019 48 284 15792
11.990541 9.9384565 -2.2224107 338 38127910 8314 48 265 15737
12.045936 9.8603096 -2.221405 315 38225390 7760 48 275 15730
12.117756 9.7955427 -2.2235601 293 38322250 7250 48 295 15745
12.205476 9.7432299 -2.2287321 334 38419780 8259 48 274 15781
12.262698 9.666317 -2.228301 277 38517050 6861 48 279 15778
12.345208 9.609127 -2.2326109 319 38614630 7926 48 322 15808
12.427477 9.5512877 -2.2369211 310 38713590 7714 48 283 15838
12.586761 9.5514221 -2.2553101 322 38810920 8149 48 269 15966
12.669683 9.4924049 -2.2597637 329 38908760 8380 48 295 15997
12.715754 9.4056597 -2.2576089 357 39005770 9063 48 251 15982
12.785215 9.3362141 -2.2597637 329 39102800 8384 48 273 15997
12.847077 9.2610617 -2.2606258 339 39200530 8645 48 279 16003
12.908499 9.1855011 -2.2614877 305 39297600 7786 48 254 16009
12.987292 9.1220484 -2.2655103 342 39393800 8730 48 296 16037
13.064166 9.0568466 -2.2692456 289 39491990 7441 48 298 16063
13.134194 8.9865742 -2.2718318 357 39589120 9174 48 262 16081
13.194009 8.9091377 -2.2726936 307 39688230 7904 48 296 16087
13.25172 8.8302078 -2.2732682 328 39786170 8479 48 292 16091
13.315575 8.7552538 -2.2749922 340 39883800 8748 48 303 16103
13.369876 8.6739254 -2.275136 320 39981890 8225 48 326 16104
13.434516 8.5991945 -2.2771473 290 40079740 7492 48 303 16118
13.53305 8.5456581 -2.285049 311 40178280 8044 48 285 16173
13.570951 8.4535656 -2.2826066 314 40276170 8176 48 318 16156
13.684962 8.4084711 -2.2932377 324 40373450 8473 48 269 16230
13.786234 8.3546019 -2.3017139 310 40470410 8150 48 328 16289
13.86612 8.2871132 -2.3065987 298 40568750 7903 48 273 16323
13.915003 8.2008715 -2.3063114 298 40666250 7895 48 302 16321
14.019824 8.1471558 -2.315506 317 40764590 8465 48 309 16385
14.104756 8.0811472 -2.3213961 288 40861600 7725 48 308 16426
14.152352 7.9934769 -2.3211088 294 40958680 7884 48 313 16424
14.157035 7.8819408 -2.313782 295 41058210 7883 48 341 16373
14.224218 7.8053989 -2.3169427 307 41155730 8208 48 305 16395
14.269233 7.7165618 -2.3165116 284 41253010 7578 48 340 16392
14.394917 7.6707435 -2.3294415 256 41350590 6939 48 296 16482
14.395272 7.5578947 -2.3218272 315 41449080 8458 48 303 16429
14.451924 7.4748797 -2.3235512 294 41546620 7909 48 275 16441
14.502808 7.3887591 -2.3244131 303 41643430 8147 48 322 16447
14.550526 7.3009634 -2.3248441 308 41741630 8262 48 306 16450
14.603922 7.215929 -2.3262808 311 41840840 8380 48 312 16460
14.654152 7.1292157 -2.3272865 311 41938580 8386 48 315 16467
14.658348 7.020359 -2.3209653 286 42035910 7664 48 327 16423
14.754858 6.9556007 -2.3295851 286 42134350 7726 48 306 16483
14.871772 6.8994999 -2.3415093 302 42231530 8268 48 312 16566
14.952538 6.8257875 -2.347687 322 42328810 8816 48 277 16609
14.978792 6.7270207 -2.3452446 332 42425970 9059 48 338 16592
15.003491 6.627789 -2.3426588 337 42524380 9214 48 299 16574
15.288954 6.6420588 -2.3814483 329 42622200 9298 48 263 16844
15.551484 6.6429653 -2.4165027 216 42719730 6227 48 201 17088
15.746158 6.6121631 -2.4407821 187 42818290 5543 48 217 17257
16.019707 6.6116848 -2.4774168 159 42916080 4860 48 177 17512
16.139761 6.545619 -2.4899156 142 43013350 4379 48 187 17599
16.079409 6.4065433 -2.474256 107 43111140 3250 48 201 17490
16.074181 6.2904525 -2.4673603 146 43208320 4416 48 212 17442
16.065363 6.1736031 -2.4600332 84 43305330 2496 48 168 17391
15.929789 6.0095992 -2.4331679 138 43401890 4047 48 146 17204
15.951513 5.9062457 -2.4308691 154 43499310 4526 48 208 17188
15.96513 5.800149 -2.4274213 162 43598510 4749 48 206 17164
15.9594 5.6874642 -2.4210999 158 43695900 4613 48 186 17120
15.956628 5.576375 -2.4153533 182 43791890 5287 48 205 17080
15.937179 5.4600825 -2.4071643 163 43892350 4707 48 181 17023
15.916905 5.3442392 -2.3989756 160 43988600 4562 48 173 16966
15.921195 5.2371988 -2.3946655 168 44085510 4803 48 177 16936
15.913467 5.1266665 -2.3886316 152 44184170 4298 48 161 16894
15.919142 5.0208907 -2.3847525 145 44281700 4108 48 185 16867
15.923172 4.914947 -2.3807299 164 44379540 4609 48 169 16839
15.843132 4.7839737 -2.3640649 173 44478030 4798 48 165 16723
15.8589 4.6827493 -2.3620534 166 44575310 4592 48 177 16709
15.817924 4.5653238 -2.3515658 155 44672120 4270 48 200 16636
15.82754 4.463079 -2.3488362 164 44770080 4507 48 204 16617
15.786884 4.3472285 -2.3386362 181 44865960 4912 48 182 16546
15.778855 4.2410345 -2.3334641 177 44962920 4783 48 176 16510
15.783521 4.1386166 -2.3303034 173 45060300 4663 48 170 16488
15.746296 4.025763 -2.3209653 152 45158760 4085 48 179 16423
15.683315 3.9073036 -2.3078916 174 45255820 4598 48 185 16332
15.691607 3.8072665 -2.305593 134 45353610 3553 48 176 16316
15.728156 3.7140963 -2.3076043 170 45451850 4468 48 166 16330
15.681204 3.6015742 -2.2972605 157 45548760 4135 48 179 16258
15.697212 3.5039952 -2.2963984 157 45647620 4133 48 176 16252
15.618798 3.3860221 -2.281601 147 45745250 3816 48 194 16149
15.60248 3.2823834 -2.2761416 164 45842180 4218 48 172 16111
15.596145 3.1812479 -2.2722626 161 45940620 4101 48 168 16084
15.606633 3.0837657 -2.2709696 161 46037380 4097 48 168 16075
15.584436 2.9801428 -2.2649357 176 46134910 4507 48 192 16033
15.5781 2.8799663 -2.2613442 161 46231720 4064 48 161 16008
15.499029 2.7671127 -2.2471213 181 46330080 4542 48 178 15909
15.483532 2.6664197 -2.2423804 179 46427810 4470 48 188 15876
15.509364 2.5729835 -2.2438169 458 46526520 11503 48 254 15886
15.471109 2.4691961 -2.2359154 297 46625030 7397 48 211 15831
15.492817 2.3752701 -2.2369211 113 46721840 2798 48 169 15838
15.457165 2.2728238 -2.229594 105 46820130 2581 48 165 15787
15.45906 2.1762829 -2.22787 157 46917810 3874 48 153 15775
15.436813 2.0766389 -2.2226982 158 47015140 3900 48 179 15739
15.454173 1.9825107 -2.2234163 158 47113080 3901 48 187 15744
15.487659 1.8902848 -2.226577 159 47210970 3915 48 170 15766
15.403608 1.7841792 -2.2126415 159 47309170 3867 48 170 15669
15.388689 1.6868287 -2.2089062 165 47406490 4006 48 149 15643
15.402687 1.5927807 -2.209481 143 47503700 3469 48 152 15647
15.409215 1.4979546 -2.2090499 160 47601850 3880 48 167 15644
15.407275 1.4023911 -2.2074697 157 47699070 3801 48 170 15633
15.366285 1.3036474 -2.2002864 166 47796500 3976 48 147 15583
15.365116 1.2086391 -2.1989934 162 47895060 3898 48 150 15574
15.354476 1.1130509 -2.1964073 177 47993310 4247 48 175 15556
15.359041 1.0186858 -2.19612 159 48092020 3811 48 172 15554
15.363028 0.92430657 -2.1958327 165 48189080 3958 48 158 15552
15.369398 0.83007675 -2.1959763 177 48286770 4249 48 155 15553
15.370248 0.73556727 -2.1954017 161 48384550 3834 48 165 15549
15.363595 0.64079034 -2.1938214 153 48481870 3660 48 163 15538
15.322733 0.54492885 -2.1873565 153 48577570 3639 48 160 15493
15.31095 0.4504644 -2.1852014 139 48675490 3316 48 183 15478
15.307489 0.35637185 -2.1843395 156 48772250 3720 48 185 15472
15.294546 0.26218659 -2.1821845 154 48871110 3646 48 160 15457
15.268159 0.16803277 -2.1781619 130 48968590 3062 48 159 15429
15.270882 0.074355461 -2.1784492 125 49065720 2942 48 165 15431
15.263133 -0.019335816 -2.1773 147 49163300 3463 48 165 15423
15.244915 -0.11285537 -2.1747139 153 49261540 3598 48 160 15405
15.253831 -0.20652884 -2.1761506 155 49359580 3652 48 152 15415
15.240403 -0.29988638 -2.1744266 126 49456340 2955 48 164 15403
15.226404 -0.39308691 -2.1727026 146 49553370 3446 48 173 15391
15.229641 -0.48669696 -2.1735647 134 49651760 3164 48 175 15397
15.181867 -0.57843703 -2.1670997 146 49750270 3429 48 173 15352
15.169134 -0.67118609 -2.1658065 153 49848520 3569 48 163 15343
15.163741 -0.76419961 -2.165663 393 49945330 9201 48 240 15342
15.148887 -0.85666889 -2.1642263 523 50042610 12258 48 292 15332
15.065318 -0.9447071 -2.1528769 239 50140750 5545 48 191 15253
15.063187 -1.0374006 -2.1534514 165 50237090 3804 48 180 15257
15.037788 -1.1283989 -2.1507218 181 50335400 4167 48 180 15238
15.015785 -1.2194453 -2.1485667 160 50432360 3667 48 204 15223
15.00112 -1.3109541 -2.1475611 171 50532090 3945 48 184 15216
14.991808 -1.4028822 -2.1474175 216 50629070 4941 48 179 15215
14.971101 -1.4936641 -2.1456935 172 50726840 3942 48 167 15203
14.950829 -1.5843492 -2.1441131 203 50825800 4647 48 192 15192
14.921157 -1.6738483 -2.1412399 184 50921800 4199 48 180 15172
14.904709 -1.7646728 -2.1403778 191 51020410 4358 48 175 15166
14.884763 -1.8549912 -2.1390848 205 51118090 4652 48 170 15157
14.907444 -1.9507837 -2.1441131 223 51215680 5109 48 187 15192
14.877545 -2.0397966 -2.1415272 205 51314120 4677 48 215 15174
14.832423 -2.1264088 -2.1367862 192 51410120 4364 48 190 15141
14.801479 -2.2147417 -2.1342003 232 51508830 5271 48 178 15123
14.788589 -2.3056726 -2.1343439 209 51606050 4726 48 162 15124
14.777094 -2.3968458 -2.1347749 181 51703430 4110 48 160 15127
14.770891 -2.4889517 -2.1360679 164 51799160 3744 48 183 15136
14.79531 -2.5865271 -2.1419582 148 51897620 3375 48 169 15177
14.787925 -2.6788487 -2.1432512 179 51995250 4081 48 232 15186
14.767319 -2.7688057 -2.1426766 163 52092820 3737 48 217 15182
14.746165 -2.8586104 -2.1421018 172 52190820 3941 48 221 15178
14.760369 -2.955451 -2.1468427 200 52287780 4588 48 195 15211
14.661518 -3.0293381 -2.1349187 210 52386950 4788 48 208 15128
14.595227 -3.1091366 -2.1278789 238 52483860 5369 48 217 15079
14.454082 -3.1718979 -2.1097772 228 52581290 5031 48 229 14953
14.234532 -3.2153783 -2.0800383 261 52678720 5632 48 233 14746
14.14224 -3.2858572 -2.0692635 267 52776340 5726 48 225 14671
14.040958 -3.353256 -2.0571957 351 52875770 7422 48 252 14587
13.940347 -3.4197719 -2.0452714 381 52972230 7970 48 249 14504
13.802983 -3.4759943 -2.0278878 422 53070230 8717 48 300 14383
13.733488 -3.5482416 -2.0207047 420 53167040 8596 48 295 14333
13.486654 -3.5728717 -1.9869432 442 53265480 8747 48 338 14098
13.347963 -3.6239159 -1.9694161 502 53363570 9748 48 340 13976
13.184368 -3.6664982 -1.9481536 510 53460500 9695 48 343 13828
13.050264 -3.7156134 -1.9313447 507 53559460 9496 48 335 13711
12.898957 -3.7582383 -1.91195 487 53656840 8898 48 368 13576
12.798835 -3.814414 -1.900313 514 53754160 9339 48 363 13495
12.729751 -3.8790252 -1.8934171 497 53851840 8929 48 364 13447
12.695316 -3.9538229 -1.8918368 532 53950450 9547 48 363 13436
12.646298 -4.0238423 -1.8881016 495 54047830 8824 48 377 13410
12.616665 -4.099833 -1.8873832 520 54145710 9307 48 353 13405
12.582818 -4.174365 -1.8860902 509 54243450 9098 48 353 13396
12.539159 -4.2454624 -1.8833606 499 54340880 8886 48 390 13377
12.499778 -4.3177967 -1.8813492 521 54439070 9251 48 332 13363
12.454381 -4.3878345 -1.8784759 519 54536350 9164 48 379 13343
12.368549 -4.443089 -1.8694251 545 54635410 9578 48 336 13280
12.298308 -4.5032415 -1.8628165 483 54732630 8421 48 368 13234
12.251903 -4.5716972 -1.8599432 477 54830060 8308 48 369 13214
12.215295 -4.6436219 -1.8586501 510 54925740 8837 48 369 13205
12.121974 -4.693469 -1.8485936 492 55025370 8433 48 368 13135
12.030344 -4.743073 -1.8388243 512 55122910 8704 48 371 13067
11.977137 -4.8072147 -1.835089 527 55219950 8909 48 362 13041
11.92726 -4.8723798 -1.8319284 514 55317350 8689 48 389 13019
11.844139 -4.9234366 -1.8235958 464 55414210 7773 48 382 12961
11.793654 -4.9875369 -1.8204352 505 55512100 8399 48 382 12939
11.731922 -5.0465097 -1.8155506 494 55609780 8168 48 406 12905
11.670816 -5.10531 -1.8108096 526 55709000 8671 48 421 12872
11.636559 -5.1756177 -1.8103786 533 55805860 8807 48 369 12869
11.578433 -5.2350955 -1.8062123 569 55904770 9315 48 346 12840
11.523614 -5.2957082 -1.8026206 549 56001590 9002 48 328 12815
11.427241 -5.3365808 -1.7924204 507 56098400 8201 48 351 12744
11.366567 -5.3934431 -1.7879667 528 56196960 8497 48 377 12713
11.30295 -5.448473 -1.7830821 507 56293970 8117 48 349 12679
11.235533 -5.5011845 -1.7776228 511 56392830 8105 48 319 12641
11.163465 -5.5510712 -1.7714453 504 56489290 7964 48 367 12598
11.105343 -5.6074195 -1.7675663 509 56587850 8009 48 365 12571
11.04519 -5.6623607 -1.7634 520 56685990 8150 48 335 12542
10.961958 -5.704895 -1.7554984 512 56784130 7954 48 330 12487
10.875997 -5.7452354 -1.7471658 518 56881340 7949 48 397 12429
10.806525 -5.793622 -1.7415628 506 56979190 7750 48 362 12390
10.728179 -5.8366432 -1.7345233 480 57076470 7274 48 391 12341
10.62199 -5.8636155 -1.7228863 508 57173940 7584 48 398 12260
10.580631 -5.9257789 -1.7220244 564 57272140 8443 48 317 12254
10.537189 -5.9866772 -1.720875 565 57369360 8431 48 321 12246
10.485681 -6.0428181 -1.7184328 508 57468320 7549 48 372 12229
10.411669 -6.085567 -1.7122551 540 57565500 7972 48 364 12186
10.327312 -6.1215801 -1.7043536 549 57663230 8062 48 369 12131
10.260719 -6.1674957 -1.699469 604 57760190 8809 48 356 12097
10.170293 -6.1984024 -1.6905617 557 57858750 8026 48 336 12035
10.104288 -6.2435207 -1.6858207 573 57955820 8227 48 334 12002
10.013793 -6.2728262 -1.6769135 581 58053450 8253 48 355 11940
9.9492188 -6.3177042 -1.6724598 573 58151450 8096 48 367 11909
9.8828068 -6.3609557 -1.6677189 543 58249490 7616 48 351 11876
9.8187265 -6.4052525 -1.6634089 575 58348180 8044 48 320 11846
9.7247581 -6.4293528 -1.653927 586 58445110 8115 48 373 11780
9.6473074 -6.4635606 -1.6473184 593 58543090 8120 48 368 11734
9.5853605 -6.5076237 -1.6434394 587 58640160 8014 48 375 11707
9.5240526 -6.5517311 -1.6397041 580 58739270 7856 48 373 11681
9.4609413 -6.5942001 -1.6356815 593 58835630 8014 48 327 11653
9.4081774 -6.6435637 -1.6335266 614 58934180 8266 48 320 11638
9.3358479 -6.6787076 -1.6279236 565 59032270 7557 48 376 11599
9.2650442 -6.7143764 -1.6226079 553 59130170 7363 48 364 11562
9.2172899 -6.7664142 -1.6214586 566 59227910 7500 48 361 11554
9.1541576 -6.8068972 -1.6175797 574 59323950 7586 48 346 11527
9.0837631 -6.8415027 -1.6124077 592 59422100 7788 48 365 11491
9.0132885 -6.8755007 -1.6072358 539 59520190 7044 48 366 11455
8.9450903 -6.910708 -1.6024948 517 59618430 6717 48 369 11422
8.8853722 -6.9520464 -1.5993341 532 59716310 6874 48 352 11400
8.7921343 -6.9664826 -1.589996 524 59814400 6695 48 332 11335
8.6982832 -6.9794188 -1.5805141 530 59911730 6713 48 393 11269
8.6368618 -7.0176797 -1.5770661 540 60009380 6791 48 344 11245
8.5607815 -7.0435033 -1.5708884 561 60107570 7017 48 324 11202
8.476346 -7.0616894 -1.5631305 542 60205150 6711 48 344 11148
8.4207544 -7.1033559 -1.5608319 590 60303090 7284 48 369 11132
8.3875456 -7.1638899 -1.5628432 565 60399480 6985 48 321 11146
8.3119936 -7.1880298 -1.5568092 546 60498240 6692 48 381 11104
8.2632656 -7.2349839 -1.5559472 521 60596040 6376 48 376 11098
8.2187166 -7.2855501 -1.5559472 499 60693810 6124 48 318 11098
8.1664944 -7.3292317 -1.5545106 516 60791040 6308 48 333 11088
8.1455374 -7.401166 -1.5592515 526 60888570 6481 48 341 11121
8.0985155 -7.4496665 -1.5589643 571 60987680 7027 48 306 11119
7.992547 -7.4432344 -1.54704 539 61085110 6540 48 353 11036
7.9395256 -7.4853463 -1.5456034 571 61183320 6904 48 355 11026
7.8784146 -7.5195713 -1.5425863 596 61280840 7183 48 335 11005
7.8257227 -7.5615811 -1.5412934 582 61378770 7001 48 344 10996
7.7728119 -7.6032281 -1.5400004 532 61475800 6384 48 359 10987
7.7140598 -7.6389394 -1.5375581 478 61574340 5727 48 359 10970
7.6467762 -7.6658077 -1.5333918 529 61670950 6296 48 350 10941
7.5850105 -7.6977787 -1.5303748 520 61768430 6177 48 341 10920
7.5362549 -7.7427559 -1.5300875 545 61867190 6485 48 226 10918
7.4906621 -7.7909923 -1.5305185 550 61964460 6539 48 324 10921
7.4386277 -7.8325014 -1.5296565 548 62062930 6492 48 353 10915
7.3883972 -7.8758311 -1.5292255 559 62159640 6631 48 354 10912
7.3453135 -7.926825 -1.5303748 553 62257880 6569 48 360 10920
7.2571187 -7.9286723 -1.5218985 542 62354220 6368 48 364 10861
7.2089963 -7.9737859 -1.5220423 547 62450880 6432 48 332 10862
7.1315928 -7.9861269 -1.5158646 555 62549130 6484 48 346 10819
7.0530014 -7.9963346 -1.5093997 547 62646820 6321 48 401 10774
7.0135541 -8.0506535 -1.5115546 526 62744810 6097 48 370 10789
7.0208197 -8.1595554 -1.5241972 498 62843010 5877 48 380 10877
6.998816 -8.2356634 -1.5305185 526 62940590 6252 48 316 10921
6.9538765 -8.2852745 -1.5318115 527 63039550 6262 48 327 10930
6.889647 -8.3117857 -1.5287945 530 63137020 6300 48 302 10909
6.7940145 -8.29953 -1.5185943 542 63235530 6346 48 320 10838
6.7298975 -8.3248987 -1.5155773 576 63333160 6707 48 322 10817
6.6675777 -8.3521137 -1.5129913 602 63430840 6990 48 299 10799
6.6076283 -8.3819866 -1.51098 604 63528430 7001 48 354 10785
6.4904294 -8.338027 -1.4954641 571 63626460 6476 48 338 10677
6.4162316 -8.3478765 -1.4900049 600 63726030 6779 48 351 10639
6.3445506 -8.3602839 -1.4851202 592 63824190 6637 48 331 10605
6.2806735 -8.3824234 -1.4821032 585 63922440 6522 48 324 10584
6.223237 -8.4128466 -1.4806666 529 64020070 5883 48 326 10574
6.162746 -8.4388838 -1.4785116 543 64118580 6022 48 335 10559
6.1027489 -8.4652996 -1.4765003 595 64216650 6595 48 338 10545
6.0243006 -8.4654942 -1.4698917 543 64314200 5949 48 379 10499
5.9785004 -8.5112076 -1.471472 519 64412020 5686 48 365 10510
5.9396949 -8.5672503 -1.47492 573 64508930 6335 48 364 10534
5.8657818 -8.5724974 -1.4694607 414 64608210 4526 48 366 10496
3.879899 -5.7450447 -0.96792495 576 64706200 2471 48 172 7005
3.8314059 -5.7489777 -0.964477 356 64803530 683 48 435 6981
5.6988416 -8.6666107 -1.4673058 534 64902640 5845 48 332 10481
5.6191669 -8.6607332 -1.4602661 534 65000020 5791 48 328 10432
5.5579181 -8.6825457 -1.4581112 510 65099860 5501 48 348 10417
5.491858 -8.6964016 -1.4546632 527 65196720 5662 48 324 10393
5.4305468 -8.7173357 -1.4525082 531 65293070 5699 48 331 10378
5.3593431 -8.7218237 -1.4476236 597 65393310 6380 48 309 10344
5.2954688 -8.7376156 -1.4447503 596 65489050 6318 48 369 10324
5.2290649 -8.7487059 -1.4411587 604 65585910 6385 48 349 10299
5.1697593 -8.7712479 -1.4395783 586 65685020 6188 48 392 10288
5.0387793 -8.6701746 -1.4173102 609 65782920 6246 48 312 10133
4.9599051 -8.6562767 -1.4098396 610 65880710 6176 48 376 10081
4.8964787 -8.6684513 -1.4068226 586 65978640 5918 48 370 10060
4.7589622 -8.5470142 -1.3816812 557 66075760 5412 48 356 9885
4.6578736 -8.4875565 -1.3670273 530 66174430 5056 48 430 9783
4.5595789 -8.430666 -1.3529481 581 66270720 5432 48 337 9685
4.4728622 -8.3929806 -1.3421732 573 66369330 5269 48 396 9610
4.4079399 -8.3948565 -1.3380069 538 66466660 4926 48 386 9581
4.3440733 -8.3980112 -1.3341279 553 66563870 5026 48 394 9554
4.2673073 -8.3751268 -1.3260827 579 66661240 5190 48 422 9498
4.2566652 -8.4825315 -1.3392999 520 66760050 4760 48 400 9590
4.1948938 -8.4889708 -1.3361392 525 66856760 4792 48 413 9568
4.1124253 -8.4522552 -1.3260827 531 66954610 4765 48 436 9498
3.9690185 -8.2863207 -1.2953383 493 67051070 4223 48 468 9284
