# .PCD v0.7 - Point Cloud Data file format
VERSION 0.7
FIELDS x y z intensity t reflectivity ring ambient range
SIZE 4 4 4 4 4 2 1 2 4
TYPE F F F F U U U U U
COUNT 1 1 1 1 1 1 1 1 1
WIDTH 765
HEIGHT 1
VIEWPOINT 0 0 0 1 0 0 0
POINTS 765
DATA ascii
5.0913458 11.446027 -1.8984667 301 31301130 4825 49 432 12676
5.1529303 11.395662 -1.8952576 385 31399050 6142 49 286 12655
5.2842507 11.497624 -1.9180268 401 31497050 6540 49 351 12804
5.3622274 11.481101 -1.9207774 408 31595290 6679 49 313 12822
5.4389286 11.461375 -1.9230697 369 31693190 6049 49 334 12837
5.4658051 11.337877 -1.9076356 267 31788510 4321 49 417 12736
5.7469358 11.736362 -1.9820557 341 31887840 5928 49 343 13223
5.7198248 11.501784 -1.9476726 344 31985320 5753 49 402 12998
5.862906 11.610262 -1.9725811 341 32081610 5871 49 353 13161
5.9628921 11.63035 -1.9823613 369 32177970 6421 49 333 13225
5.8625798 11.263936 -1.9249034 346 32275600 5673 49 385 12849
5.9371238 11.238238 -1.9267372 352 32373790 5814 49 408 12861
6.1507401 11.471591 -1.9741093 375 32472190 6488 49 349 13171
6.1421318 11.288668 -1.9485896 413 32570400 6947 49 365 13004
6.2657351 11.349396 -1.9660102 398 32669610 6831 49 347 13118
6.4014211 11.428858 -1.9869456 356 32767600 6215 49 380 13255
6.4572678 11.364447 -1.982514 419 32864210 7312 49 348 13226
6.2406459 10.828008 -1.8938823 333 32961540 5284 49 415 12646
6.4954939 11.11201 -1.9516457 306 33059070 5135 49 381 13024
6.5897603 11.116151 -1.9595921 386 33157560 6544 49 375 13076
6.664463 11.086518 -1.9615786 400 33254840 6804 49 328 13089
6.6217747 10.86399 -1.9287238 457 33352010 7542 49 343 12874
6.8015685 11.006422 -1.9620371 455 33450110 7766 49 342 13092
6.7997165 10.853935 -1.9418657 451 33547680 7531 49 308 12960
6.8449945 10.778639 -1.9357532 393 33645260 6514 49 322 12920
6.9195609 10.749732 -1.9381982 443 33742290 7363 49 344 12936
7.0944715 10.874261 -1.9690665 424 33840480 7300 49 356 13138
7.2112083 10.906365 -1.9831253 461 33938680 8024 49 296 13230
7.2598386 10.83482 -1.9780825 461 34035190 7981 49 320 13197
7.3317347 10.798246 -1.9796106 465 34131430 8082 49 309 13207
7.2410092 10.525089 -1.9368229 241 34229420 4007 49 484 12927
3.8665578 5.5472507 -1.0069536 379 34326380 1761 49 314 6842
6.9494543 9.8405075 -1.8241994 471 34424010 6955 49 341 12190
7.0332804 9.8306332 -1.8304648 453 34521440 6727 49 383 12231
7.455369 10.286603 -1.9258204 389 34618820 6399 49 432 12855
7.6867886 10.470086 -1.9698305 423 34716810 7270 49 364 13143
7.7379127 10.405277 -1.9664687 401 34814190 6853 49 454 13121
7.8093424 10.367865 -1.9684552 427 34911710 7324 49 398 13134
7.8979874 10.352752 -1.9748734 401 35010320 6926 49 351 13176
7.9794893 10.327556 -1.9794579 483 35108220 8384 49 380 13206
8.0975208 10.348446 -1.993211 423 35204930 7434 49 397 13296
7.9509473 10.033675 -1.9409488 464 35302560 7762 49 397 12954
8.1490593 10.155037 -1.9747206 412 35399930 7124 49 415 13175
8.0273571 9.8785954 -1.9296407 387 35498380 6411 49 527 12880
8.2762032 10.058086 -1.9754846 441 35596220 7636 49 396 13180
8.3902702 10.070131 -1.9881681 430 35693030 7527 49 353 13263
8.4901371 10.063781 -1.997337 436 35791540 7678 49 395 13323
8.4990931 9.9498806 -1.9848063 312 35891220 5431 49 489 13241
7.998189 9.2479954 -1.8520114 324 35988800 4924 49 498 12372
8.71105 9.9481792 -2.0060472 406 36085710 7232 49 351 13380
8.6021242 9.7030172 -1.9664687 302 36184520 5158 49 504 13121
8.9763832 10.000858 -2.0393605 371 36282660 6833 49 396 13598
8.8328705 9.7203283 -1.9922941 298 36380500 5253 49 525 13290
8.8742819 9.6463108 -1.9881681 413 36478080 7230 49 348 13263
8.8363104 9.4875422 -1.966163 313 36576270 5370 49 463 13119
9.0489388 9.5970812 -2.0010045 331 36673800 5845 49 444 13347
9.1076555 9.5413771 -2.0010045 479 36772210 8516 49 335 13347
9.1378717 9.4561777 -1.9947392 431 36869640 7605 49 403 13306
9.0616474 9.262886 -1.9650934 276 36966600 4733 49 542 13112
9.4382086 9.5301046 -2.0353875 346 37065160 6352 49 478 13572
9.6112604 9.5864668 -2.0604489 388 37162790 7258 49 384 13736
9.7269239 9.5834923 -2.0728269 355 37260110 6746 49 420 13817
9.9434795 9.67733 -2.106904 363 37357840 7110 49 377 14040
9.7141304 9.3387575 -2.0450146 254 37456300 4709 49 544 13635
10.141749 9.6307955 -2.1240191 349 37553680 6960 49 402 14152
10.25255 9.6170645 -2.1350217 441 37650840 8902 49 348 14224
10.311366 9.5539742 -2.1350217 452 37748220 9106 49 338 14224
10.339174 9.4625034 -2.1286037 481 37846260 9620 49 314 14182
10.392642 9.3949089 -2.1276867 419 37943490 8395 49 375 14176
10.478105 9.3559752 -2.1334937 407 38041930 8200 49 357 14214
10.521973 9.2797413 -2.130743 394 38139260 7904 49 324 14196
10.634604 9.2636871 -2.142204 425 38235970 8609 49 376 14271
10.762415 9.2594891 -2.1567214 465 38333400 9561 49 313 14366
10.864967 9.2323122 -2.1660428 385 38430520 7963 49 394 14427
10.971375 9.2074003 -2.1761286 340 38527950 7086 49 303 14493
10.877005 9.0150461 -2.1458716 431 38626760 8784 49 362 14295
10.922938 8.9406252 -2.1440377 455 38723940 9238 49 367 14283
10.97836 8.8740559 -2.1441905 472 38821610 9588 49 356 14284
11.0998 8.8601627 -2.1574852 482 38918480 9931 49 361 14371
11.169479 8.8041239 -2.1605415 476 39015390 9799 49 325 14391
11.237329 8.7463493 -2.1632922 438 39112930 9036 49 322 14409
11.327612 8.7055368 -2.1704745 467 39209840 9715 49 357 14456
11.398135 8.6490097 -2.1738365 477 39305930 9978 49 347 14478
11.471554 8.5943146 -2.1778095 479 39403930 10058 49 334 14504
11.534401 8.5314045 -2.1797962 413 39500940 8659 49 360 14517
11.606485 8.4750395 -2.1836164 448 39599900 9406 49 369 14542
11.662277 8.4065533 -2.1843805 443 39697590 9312 49 341 14547
11.691897 8.3193674 -2.1802545 455 39795120 9545 49 372 14520
11.741107 8.246335 -2.179949 436 39892960 9128 49 336 14518
11.806916 8.1848345 -2.1828523 466 39990690 9829 49 333 14537
11.860993 8.1150246 -2.1836164 431 40089080 9091 49 361 14542
11.922849 8.0503893 -2.1859086 463 40186830 9740 49 387 14557
11.988469 7.9880395 -2.1889648 429 40283940 9089 49 374 14577
12.065333 7.9327884 -2.1941605 456 40380720 9711 49 361 14611
12.101344 7.8505402 -2.1918683 462 40479010 9799 49 353 14596
12.162604 7.7846637 -2.1943133 441 40576340 9391 49 362 14612
12.243567 7.7309933 -2.2004259 480 40674480 10265 49 327 14652
12.290772 7.6557226 -2.2004259 469 40771340 10052 49 325 14652
12.353515 7.589993 -2.2033293 478 40868250 10243 49 358 14671
12.440422 7.5386333 -2.2106645 480 40967680 10353 49 362 14719
12.491534 7.4651999 -2.2115812 413 41064960 8911 49 352 14725
12.503048 7.3683434 -2.2054687 443 41162120 9486 49 363 14685
12.566823 7.3024106 -2.2088306 421 41259440 9036 49 373 14707
12.670561 7.2590609 -2.2193747 411 41357850 8906 49 356 14776
12.724329 7.1865249 -2.2210557 462 41455280 10055 49 359 14787
12.775093 7.1121597 -2.2222781 458 41551890 9957 49 359 14795
12.84795 7.0498023 -2.227474 423 41649920 9259 49 342 14829
12.911828 6.9821177 -2.2311413 460 41749040 10102 49 355 14853
12.984952 6.9190259 -2.2364898 407 41846620 8996 49 360 14888
13.019287 6.8350873 -2.2351146 425 41943800 9362 49 360 14879
13.136473 6.7941155 -2.2482564 422 42042090 9427 49 353 14965
13.180555 6.7147293 -2.2487149 418 42139050 9319 49 352 14968
13.212675 6.6292973 -2.2471869 455 42236230 10132 49 364 14958
13.205257 6.5244627 -2.238935 426 42333240 9396 49 348 14904
13.357906 6.4982157 -2.2583423 447 42431400 10062 49 305 15031
13.595401 6.5108886 -2.2922668 435 42529180 10083 49 300 15253
13.861259 6.5339499 -2.3309286 322 42626510 7698 49 209 15506
13.961154 6.4766388 -2.341167 271 42724950 6528 49 207 15573
14.155265 6.4614344 -2.367451 274 42822540 6718 49 231 15745
14.364133 6.4505663 -2.3961799 229 42919700 5789 49 227 15933
14.443218 6.3798771 -2.4029036 208 43017400 5263 49 208 15977
14.482999 6.2915287 -2.4030564 160 43114360 4039 49 206 15978
14.485886 6.1874056 -2.3970966 182 43211270 4602 49 211 15939
14.413323 6.0521126 -2.3786063 215 43307680 5319 49 162 15818
14.39903 5.9424486 -2.3700488 137 43405060 3370 49 159 15762
14.408663 5.8432159 -2.365617 211 43503820 5189 49 156 15733
14.425883 5.7473812 -2.362561 215 43601190 5248 49 166 15713
14.466398 5.6609182 -2.3634777 221 43698400 5419 49 195 15719
14.477798 5.5631862 -2.3596575 250 43797380 6094 49 185 15694
14.502415 5.4707594 -2.3581293 213 43893530 5200 49 183 15684
14.519954 5.3758383 -2.3555315 218 43990240 5293 49 159 15667
14.48393 5.2616758 -2.3442233 210 44087450 5073 49 156 15593
14.485222 5.1617584 -2.3391805 242 44186160 5844 49 185 15560
14.52595 5.0760417 -2.3407085 226 44283900 5440 49 185 15570
14.489509 4.9637575 -2.329706 211 44382140 5037 49 150 15498
14.484092 4.8628068 -2.323899 211 44479320 5005 49 185 15460
14.485493 4.7645793 -2.3193147 214 44575980 5058 49 179 15430
14.472126 4.6619735 -2.312438 238 44673810 5553 49 161 15385
14.527791 4.581706 -2.3168697 228 44770890 5355 49 188 15414
14.52919 4.4843187 -2.3125908 224 44866410 5247 49 158 15386
14.519534 4.383945 -2.3066311 264 44963590 6180 49 187 15347
14.530047 4.2900152 -2.3040333 243 45061880 5695 49 193 15330
14.454499 4.1714621 -2.2876823 215 45158840 4944 49 192 15223
14.459848 4.0770607 -2.2844732 230 45256490 5281 49 174 15202
14.479829 3.9869483 -2.2837093 238 45353300 5458 49 190 15197
14.477297 3.8908453 -2.2794304 225 45451390 5121 49 168 15169
14.464572 3.7924178 -2.2736235 225 45550150 5097 49 160 15131
14.473207 3.6999221 -2.2713313 210 45647580 4766 49 162 15116
14.470704 3.604836 -2.2673581 218 45744340 4928 49 182 15090
14.472383 3.511085 -2.2641492 200 45842680 4510 49 161 15069
14.460952 3.4144974 -2.2589533 198 45939240 4458 49 204 15035
14.464293 3.3217213 -2.2562027 197 46036670 4409 49 173 15017
14.43907 3.2227902 -2.2490206 200 46134600 4452 49 158 14970
14.457607 3.1339238 -2.2488678 214 46231490 4761 49 173 14969
14.457222 3.0410864 -2.2458115 211 46329150 4686 49 150 14949
14.409763 2.9388933 -2.2354202 212 46427760 4641 49 167 14881
14.412982 2.8475485 -2.2331281 242 46526060 5337 49 174 14866
14.406887 2.7546048 -2.2294605 211 46622770 4612 49 189 14842
14.384646 2.6589694 -2.2233479 200 46720910 4352 49 157 14802
14.397772 2.5701358 -2.2228894 207 46818440 4503 49 159 14799
14.387949 2.477385 -2.2189164 210 46915670 4570 49 184 14773
14.365831 2.3829112 -2.2131095 150 47013440 3228 49 152 14735
14.365543 2.2923834 -2.2108173 180 47111190 3847 49 166 14720
14.354918 2.2004521 -2.2069969 198 47209330 4224 49 160 14695
14.362283 2.1114683 -2.20608 218 47306390 4652 49 160 14689
14.393561 2.0259199 -2.2089834 212 47403570 4574 49 177 14708
14.414536 1.9387499 -2.2103589 251 47501460 5362 49 167 14717
14.427141 1.8503932 -2.2105117 214 47598970 4599 49 195 14718
14.421547 1.7598004 -2.2079139 206 47695900 4402 49 152 14701
14.415384 1.6693461 -2.2053158 195 47794240 4173 49 166 14684
14.448933 1.5834469 -2.2089834 221 47892400 4748 49 174 14708
14.440682 1.4929311 -2.2062328 217 47991100 4611 49 150 14690
14.452521 1.4045833 -2.2066913 223 48087910 4784 49 159 14693
14.465789 1.3163257 -2.2074554 241 48184120 5155 49 161 14698
14.435189 1.2242841 -2.2014956 194 48283080 4155 49 191 14659
14.453267 1.1365404 -2.2031765 225 48380260 4830 49 180 14670
14.490524 1.0500489 -2.2079139 230 48475830 4936 49 187 14701
14.497681 0.96118236 -2.2080667 226 48573560 4856 49 154 14702
14.514156 0.87286049 -2.2097476 222 48670270 4793 49 181 14713
14.511345 0.7833609 -2.2085249 211 48768930 4534 49 151 14705
14.527723 0.6948725 -2.2103589 222 48866260 4756 49 165 14717
14.526777 0.60551333 -2.2095947 247 48963290 5333 49 183 14712
14.509479 0.51563066 -2.2063856 207 49060710 4438 49 157 14691
14.500515 0.42624429 -2.2045519 204 49158810 4363 49 176 14679
14.519653 0.33765301 -2.2071497 194 49256680 4138 49 162 14696
14.527381 0.24865709 -2.2080667 188 49353340 4034 49 157 14702
14.526656 0.15949242 -2.207761 194 49450200 4143 49 147 14700
14.521432 0.070326932 -2.2068441 182 49548400 3881 49 142 14694
14.524555 -0.01878012 -2.2073026 175 49646860 3767 49 184 14697
14.536025 -0.10798912 -2.2091362 193 49744900 4124 49 162 14709
14.511374 -0.19685623 -2.2054687 176 49841610 3770 49 139 14685
14.528666 -0.28626293 -2.2083721 192 49938720 4097 49 172 14704
14.527623 -0.3754293 -2.2085249 187 50036720 4031 49 184 14705
14.52307 -0.46449882 -2.2082193 201 50132910 4294 49 158 14703
14.524885 -0.55379033 -2.2089834 223 50231050 4792 49 168 14708
14.53701 -0.64360261 -2.2114284 187 50327930 4024 49 159 14724
14.543644 -0.73333561 -2.2131095 402 50427510 8687 49 218 14735
14.531964 -0.82216901 -2.2120397 566 50523090 12212 49 236 14728
14.453658 -0.90673959 -2.2007315 400 50621950 8552 49 204 14654
14.481344 -0.99771875 -2.2059271 228 50720810 4859 49 201 14688
14.498601 -1.0883317 -2.2095947 269 50816650 5771 49 158 14712
14.496575 -1.1776732 -2.2103589 288 50915090 6224 49 187 14717
14.477262 -1.2655673 -2.2085249 272 51012640 5831 49 152 14705
14.476112 -1.3550192 -2.2095947 330 51110060 7109 49 179 14712
14.452775 -1.442345 -2.2073026 329 51207180 7053 49 170 14697
14.434808 -1.5300608 -2.2059271 290 51304300 6203 49 170 14688
14.419255 -1.6179409 -2.2050104 292 51402800 6283 49 175 14682
14.409057 -1.7063854 -2.2050104 295 51499870 6326 49 175 14682
14.404199 -1.7954991 -2.2059271 252 51597150 5425 49 178 14688
14.40173 -1.8850024 -2.2073026 257 51694060 5539 49 182 14697
14.401642 -1.9749457 -2.2091362 269 51791050 5767 49 167 14709
14.356971 -2.0586457 -2.2040935 275 51888550 5853 49 149 14676
14.368503 -2.150357 -2.2079139 250 51985980 5348 49 180 14701
14.357967 -2.2389367 -2.2083721 252 52083820 5396 49 165 14704
14.367371 -2.330792 -2.2120397 199 52180680 4287 49 159 14728
14.357672 -2.4197259 -2.2128038 219 52279710 4707 49 133 14733
14.348395 -2.5087988 -2.2137208 181 52376470 3908 49 129 14739
14.315228 -2.5936201 -2.2109699 152 52473730 3263 49 168 14721
14.297101 -2.6810434 -2.2106645 140 52571000 3019 49 190 14719
14.286202 -2.7698472 -2.2115812 133 52668580 2852 49 169 14725
14.252465 -2.8541541 -2.2089834 127 52767860 2730 49 209 14708
14.250169 -2.9447522 -2.2114284 112 52864170 2415 49 186 14724
14.228932 -3.0315163 -2.2109699 123 52962000 2650 49 199 14721
14.273771 -3.1327503 -2.2210557 160 53058710 3463 49 186 14787
14.255245 -3.2204912 -2.2212086 207 53156950 4511 49 201 14788
14.12933 -3.2832916 -2.2043991 138 53254990 2960 49 185 14678
14.057974 -3.3577564 -2.1963 154 53351800 3262 49 172 14625
14.014071 -3.4382992 -2.1926324 143 53450620 3034 49 194 14601
13.882504 -3.4964638 -2.1750588 158 53547840 3304 49 177 14486
13.76989 -3.5580895 -2.1605415 169 53645070 3473 49 151 14391
13.73729 -3.6397285 -2.1588607 210 53742650 4316 49 150 14380
13.677504 -3.71385 -2.1529009 218 53839820 4439 49 137 14341
13.588763 -3.7794304 -2.1423569 182 53938270 3664 49 132 14272
13.516844 -3.8489342 -2.1345634 164 54036060 3291 49 146 14221
13.426558 -3.9124448 -2.1238663 172 54133690 3422 49 130 14151
13.345474 -3.9778163 -2.1146977 157 54231020 3094 49 138 14091
13.210213 -4.025918 -2.0968184 138 54329010 2673 49 130 13974
13.155068 -4.0974932 -2.0919285 134 54426220 2587 49 108 13942
13.076942 -4.1613512 -2.0833709 136 54525080 2596 49 159 13886
12.979733 -4.2182956 -2.0717571 134 54622210 2532 49 143 13810
12.929219 -4.2897663 -2.0677838 126 54719530 2369 49 153 13784
12.807178 -4.3366857 -2.052197 108 54816390 2001 49 127 13682
12.705601 -4.38937 -2.0399718 117 54914590 2147 49 109 13602
12.639282 -4.4534531 -2.0335538 101 55012070 1834 49 146 13560
12.562426 -4.5132122 -2.0254545 99 55108910 1780 49 167 13507
12.502945 -4.5786533 -2.0202589 92 55206200 1648 49 138 13473
12.413508 -4.6324782 -2.0101733 88 55302960 1562 49 129 13407
12.329426 -4.6874857 -2.0010045 118 55400760 2079 49 151 13347
12.254354 -4.7452054 -1.9933639 101 55498230 1766 49 132 13297
12.161571 -4.7952929 -1.9828197 98 55597340 1692 49 149 13228
12.085146 -4.8510485 -1.9750262 104 55694060 1784 49 147 13177
11.971902 -4.8910961 -1.9611202 116 55792920 1964 49 147 13086
11.903339 -4.9485278 -1.954702 106 55889580 1782 49 144 13044
11.788104 -4.9856691 -1.9404904 134 55986340 2226 49 150 12951
11.694653 -5.0309572 -1.9299463 134 56084800 2202 49 147 12882
11.625536 -5.0859823 -1.9235281 124 56181660 2025 49 136 12840
11.536322 -5.1315126 -1.913748 127 56280370 2053 49 141 12776
11.484808 -5.193243 -1.9103862 122 56375380 1963 49 150 12754
11.445543 -5.260313 -1.9091637 112 56475170 1800 49 137 12746
11.362908 -5.3070221 -1.9006062 109 56573170 1736 49 136 12690
11.205137 -5.3173246 -1.8792123 122 56671310 1904 49 128 12550
11.159837 -5.3799696 -1.8770728 133 56768320 2072 49 134 12536
11.098214 -5.4344354 -1.8721828 145 56866160 2250 49 126 12504
10.998296 -5.4694252 -1.8607218 126 56963220 1928 49 135 12429
10.965411 -5.5372524 -1.8608747 118 57060600 1807 49 124 12430
10.901329 -5.5890999 -1.855679 268 57158700 4093 49 184 12396
10.85894 -5.6517777 -1.8543037 281 57255820 4298 49 213 12387
10.821436 -5.7169156 -1.8538452 321 57354630 4876 49 240 12384
10.78267 -5.7813387 -1.8532339 334 57451740 5089 49 224 12380
10.747861 -5.8478637 -1.8533868 345 57549390 5244 49 217 12381
10.699665 -5.9070139 -1.8512474 374 57646250 5705 49 231 12367
10.594242 -5.933918 -1.8390223 416 57744640 6253 49 211 12287
10.380632 -5.8982344 -1.8075428 376 57841550 5473 49 229 12081
10.233794 -5.8981557 -1.7878299 479 57939150 6810 49 267 11952
10.119773 -5.915452 -1.7739239 617 58036970 8633 49 274 11861
9.9812746 -5.9169579 -1.7555863 616 58134970 8454 49 316 11741
9.6678162 -5.8115892 -1.7056162 619 58233530 8022 49 371 11414
9.3703833 -5.7113471 -1.6582441 678 58330340 8309 49 360 11104
9.2082205 -5.6902857 -1.6351693 697 58428160 8339 49 345 10953
9.1279087 -5.7183461 -1.6269174 675 58525190 7982 49 362 10899
9.056778 -5.7514644 -1.6203464 740 58624250 8675 49 333 10856
9.0005426 -5.7935543 -1.6165261 730 58720510 8531 49 328 10831
8.9060602 -5.8103309 -1.6056763 669 58818960 7709 49 360 10760
8.8413887 -5.8457904 -1.6003278 685 58916900 7859 49 329 10725
8.7519894 -5.864172 -1.590395 684 59014680 7729 49 328 10660
8.7076674 -5.9122114 -1.5888668 730 59112370 8247 49 326 10650
8.646801 -5.9487247 -1.5842825 771 59208250 8666 49 303 10620
8.5541983 -5.9626737 -1.5737383 723 59306240 8036 49 361 10551
8.4633665 -5.9768519 -1.5634998 683 59404290 7472 49 369 10484
8.4000111 -6.0096927 -1.558457 710 59502480 7721 49 359 10451
8.2749586 -5.9973245 -1.5416476 730 59600220 7776 49 322 10341
8.2188854 -6.0339489 -1.5379801 675 59698270 7150 49 383 10317
8.1507807 -6.0612655 -1.5320203 716 59795480 7531 49 351 10278
8.0897551 -6.0933256 -1.5274359 711 59893070 7423 49 367 10248
8.0160723 -6.1152749 -1.5204065 731 59991100 7567 49 342 10202
7.9353881 -6.1311121 -1.5120018 757 60088640 7765 49 327 10147
7.8734922 -6.1608071 -1.5072645 754 60186420 7688 49 310 10116
7.7991385 -6.1801538 -1.5000823 724 60282830 7318 49 375 10069
7.7048059 -6.1827393 -1.4889269 736 60381470 7326 49 331 9996
7.6575212 -6.2224197 -1.4870932 751 60479170 7457 49 346 9984
7.6085134 -6.2604966 -1.4849538 736 60576890 7285 49 358 9970
7.5509753 -6.2912483 -1.4811335 744 60674020 7337 49 370 9945
7.503922 -6.330452 -1.4794525 741 60771500 7294 49 337 9934
7.4506612 -6.3641801 -1.476549 750 60870510 7354 49 330 9915
7.3920369 -6.3929682 -1.4725759 757 60967830 7375 49 331 9889
7.3273926 -6.4160686 -1.4673803 760 61065930 7351 49 349 9855
7.2597861 -6.4359946 -1.4615734 759 61163360 7293 49 375 9817
7.1922126 -6.4553337 -1.4557664 748 61261300 7121 49 383 9779
7.1414971 -6.4893732 -1.4534743 781 61358210 7407 49 354 9764
7.0811806 -6.5143356 -1.4491955 766 61456720 7231 49 365 9736
7.0244436 -6.5421705 -1.4456807 782 61553210 7358 49 355 9713
6.9712267 -6.5729446 -1.4429301 807 61650540 7576 49 338 9695
6.9086046 -6.5944419 -1.4381928 769 61749300 7155 49 342 9664
6.848114 -6.6174788 -1.4339142 706 61846580 6536 49 346 9636
6.7762985 -6.6289649 -1.4271903 702 61944970 6450 49 342 9592
6.7179422 -6.6530333 -1.42337 736 62041630 6708 49 352 9567
6.6797853 -6.6969275 -1.4239813 762 62139730 6961 49 355 9571
6.6337128 -6.7328596 -1.4229115 739 62236090 6731 49 350 9564
6.5778017 -6.758564 -1.4197025 736 62332680 6673 49 367 9543
6.5184011 -6.7802734 -1.4157293 738 62430890 6663 49 386 9517
6.4555798 -6.7979264 -1.4109921 740 62528470 6624 49 336 9486
6.4009013 -6.8237138 -1.4080887 806 62626410 7204 49 247 9467
6.3434634 -6.8461871 -1.4045739 765 62724440 6805 49 357 9444
6.3013363 -6.8849812 -1.4045739 754 62822080 6702 49 310 9444
6.2569842 -6.9213166 -1.4041156 742 62920940 6590 49 304 9441
6.2005758 -6.9440975 -1.4009064 693 63018320 6138 49 382 9420
6.1532755 -6.9768248 -1.3998368 737 63116760 6524 49 313 9413
6.0837374 -6.9838963 -1.3935714 690 63214460 6054 49 322 9372
6.0356145 -7.0151005 -1.3923489 723 63311980 6335 49 298 9364
5.9860578 -7.0444713 -1.3908207 746 63409510 6497 49 287 9354
5.9160395 -7.0492735 -1.3844026 732 63507560 6328 49 384 9312
5.8613234 -7.0717449 -1.381652 771 63607080 6634 49 334 9294
5.7715025 -7.0509844 -1.3703438 764 63705180 6487 49 339 9220
5.7225385 -7.0793476 -1.3689685 782 63803370 6620 49 313 9211
5.6672792 -7.0996518 -1.366065 782 63899660 6591 49 350 9192
5.6021986 -7.1071267 -1.3607166 805 63999460 6736 49 313 9157
5.5408821 -7.118751 -1.356285 824 64097430 6842 49 325 9128
5.488667 -7.141645 -1.3541455 768 64194910 6363 49 334 9114
5.4244332 -7.1484208 -1.3489499 796 64292700 6551 49 396 9080
5.376914 -7.1768241 -1.3480331 820 64389620 6736 49 334 9074
5.3492312 -7.2319288 -1.3523118 778 64488740 6412 49 347 9102
5.3035908 -7.2630186 -1.3520062 782 64585900 6457 49 376 9100
5.2340775 -7.260951 -1.3454351 794 64683130 6497 49 342 9057
5.1928644 -7.2977614 -1.3463521 775 64782290 6334 49 342 9063
5.1417403 -7.320591 -1.3446711 762 64880500 6228 49 337 9052
5.0871544 -7.3381948 -1.3420733 764 64979360 6225 49 390 9035
5.0291977 -7.3505111 -1.3385586 802 65076220 6500 49 321 9012
4.9817891 -7.377955 -1.3379474 818 65173230 6614 49 331 9008
4.9331374 -7.4034495 -1.3370304 766 65272760 6184 49 330 9002
4.8925037 -7.441011 -1.3384057 774 65369170 6260 49 344 9011
4.8295441 -7.4443603 -1.3335158 756 65466180 6079 49 349 8979
4.7683263 -7.4497147 -1.3290842 784 65565140 6275 49 304 8950
4.7394094 -7.5055723 -1.3339742 755 65662980 6085 49 314 8982
4.6937895 -7.5353503 -1.3341269 773 65760830 6222 49 349 8983
4.6324625 -7.5395899 -1.3296955 750 65858600 5996 49 361 8954
4.5825286 -7.5619559 -1.3286257 766 65955680 6111 49 299 8947
4.5304666 -7.5805998 -1.3269448 713 66054490 5670 49 331 8936
4.4833655 -7.6074042 -1.326792 763 66150840 6068 49 347 8935
4.4400787 -7.6407518 -1.3278617 762 66249350 6078 49 329 8942
4.3827963 -7.6498442 -1.3246526 737 66346660 5859 49 329 8921
4.3279996 -7.6628242 -1.3222076 728 66443830 5743 49 330 8905
4.2828226 -7.6926899 -1.3228189 722 66542490 5709 49 308 8909
4.2317371 -7.7118926 -1.3215963 730 66640020 5762 49 326 8901
4.1815181 -7.7324972 -1.3206794 731 66736730 5753 49 322 8895
4.1144757 -7.7213778 -1.3142613 682 66834530 5332 49 325 8853
4.0587525 -7.7307281 -1.3115107 665 66930920 5176 49 342 8835
4.0116949 -7.7563643 -1.3116634 683 67029780 5308 49 367 8836
3.9846621 -7.8213406 -1.3186928 740 67127520 5809 49 312 8882
3.9396985 -7.8518257 -1.3197626 730 67223720 5745 49 346 8889
3.8940728 -7.8811679 -1.3206794 768 67322480 6061 49 337 8895
3.8391571 -7.8915825 -1.3183873 720 67419390 5670 49 328 8880
3.7881019 -7.9096427 -1.3174703 750 67517430 5892 49 320 8874
3.7306495 -7.9139647 -1.3142613 724 67616390 5659 49 346 8853
3.6795249 -7.9313273 -1.3133444 750 67713870 5855 49 333 8847
3.6295588 -7.9510584 -1.312886 747 67811100 5829 49 331 8844
3.5807037 -7.9731793 -1.312886 699 67909490 5437 49 336 8844
3.5404983 -8.0148878 -1.3162478 728 68006770 5692 49 338 8866
3.4940095 -8.0428057 -1.3173175 735 68104610 5772 49 328 8873
3.437995 -8.0486431 -1.3147197 718 68203050 5614 49 361 8856
3.3870144 -8.0659418 -1.3141085 733 68301460 5720 49 342 8852
3.3344431 -8.0792646 -1.312886 699 68398670 5437 49 346 8844
3.2866638 -8.1041517 -1.31365 734 68497340 5717 49 327 8849
3.232121 -8.1122303 -1.3116634 714 68595480 5567 49 353 8836
3.177603 -8.1199455 -1.3096769 725 68692290 5619 49 375 8823
3.1266568 -8.1365223 -1.3092184 678 68790530 5244 49 335 8820
3.0808587 -8.1666498 -1.3110522 693 68888030 5401 49 305 8832
3.0265737 -8.1742783 -1.3092184 710 68985600 5500 49 357 8820
2.9773724 -8.1954823 -1.3096769 762 69084310 5917 49 339 8823
2.9313421 -8.2256985 -1.3116634 713 69181170 5546 49 313 8836
2.884727 -8.2547255 -1.3134972 749 69278750 5855 49 359 8848
2.8321011 -8.2666607 -1.3125803 728 69378580 5662 49 331 8842
2.7819536 -8.2857561 -1.312886 735 69475910 5734 49 350 8844
2.731987 -8.3054867 -1.3133444 755 69573130 5899 49 373 8847
2.683398 -8.3296185 -1.3145669 708 69672040 5545 49 321 8855
2.643235 -8.3807993 -1.3202209 744 69769420 5869 49 330 8892
2.5987561 -8.4195232 -1.3238885 745 69867050 5901 49 320 8916
2.5441895 -8.4258499 -1.3223604 702 69965410 5563 49 297 8906
2.4921618 -8.4403543 -1.3222076 694 70062830 5489 49 331 8905
2.4340239 -8.4336481 -1.3186928 720 70160930 5676 49 292 8882
2.3824983 -8.4493761 -1.3188456 712 70259990 5604 49 322 8883
2.3316584 -8.4676466 -1.3194569 686 70357570 5396 49 320 8887
2.2778625 -8.4751129 -1.3183873 694 70454940 5456 49 354 8880
2.2258174 -8.4889307 -1.3183873 706 70552120 5553 49 313 8880
2.1648777 -8.4679594 -1.312886 699 70651230 5437 49 322 8844
2.1095343 -8.467658 -1.3107466 706 70748860 5489 49 355 8830
2.0542762 -8.4669962 -1.3086072 698 70846230 5400 49 367 8816
2.002058 -8.4784803 -1.3084544 652 70944990 5035 49 357 8815
1.9517667 -8.4983101 -1.3096769 691 71041760 5361 49 374 8823
1.8970022 -8.4985523 -1.3078431 643 71139130 4984 49 343 8811
1.8460765 -8.5158272 -1.30876 683 71237280 5287 49 338 8817
1.7935861 -8.5260267 -1.3086072 672 71334500 5199 49 348 8816
1.738868 -8.5252514 -1.3067734 644 71432900 4975 49 361 8804
1.6932287 -8.5696936 -1.3121219 679 71530170 5289 49 353 8839
1.638944 -8.5711861 -1.3107466 647 71628120 5031 49 322 8830
1.592967 -8.6170368 -1.3164006 668 71725740 5236 49 351 8867
1.5388484 -8.6198387 -1.315331 668 71822870 5229 49 343 8860
1.4842523 -8.61938 -1.3138028 664 71920700 5168 49 366 8850
1.4313369 -8.6283245 -1.3138028 647 72019060 5054 49 310 8850
1.380236 -8.6486559 -1.3156366 671 72116290 5255 49 340 8862
1.3298378 -8.6745453 -1.3183873 644 72214630 5064 49 324 8880
1.274431 -8.6678753 -1.316095 650 72311960 5088 49 409 8865
1.2199824 -8.6667242 -1.3147197 663 72410000 5178 49 329 8856
1.1659912 -8.66817 -1.3138028 659 72507530 5148 49 303 8850
1.1124052 -8.6722212 -1.3133444 671 72604540 5236 49 359 8847
1.0596513 -8.682807 -1.3139557 639 72703300 4981 49 366 8851
1.0077186 -8.7009258 -1.3157895 685 72800530 5367 49 324 8863
0.9548499 -8.7118568 -1.3165535 673 72897750 5285 49 347 8868
0.90422195 -8.7450762 -1.3208323 649 72995430 5106 49 323 8896
0.8536045 -8.7819357 -1.3257222 666 73092660 5286 49 328 8928
0.79889762 -8.7781506 -1.3243469 637 73191870 5045 49 312 8919
0.74418592 -8.7730398 -1.3228189 616 73290060 4864 49 363 8909
0.69282001 -8.8089685 -1.3277088 604 73387750 4814 49 323 8941
0.64111251 -8.8455811 -1.3327516 680 73483800 5454 49 320 8974
0.58793604 -8.8661118 -1.3353496 628 73582040 5054 49 320 8991
0.5344131 -8.8843489 -1.3376417 636 73678900 5144 49 324 9006
0.48111445 -8.9101582 -1.3411564 588 73777510 4767 49 370 9029
0.42652807 -8.914916 -1.341462 594 73874840 4838 49 333 9031
0.3716546 -8.9134159 -1.3408508 585 73973800 4742 49 366 9027
0.31579837 -8.8829365 -1.3358079 587 74071230 4733 49 334 8994
0.26073647 -8.8659382 -1.3329045 604 74168240 4830 49 274 8975
0.20640004 -8.8703356 -1.3333629 613 74266180 4918 49 326 8978
0.15195189 -8.8704472 -1.3332101 540 74363460 4331 49 294 8977
0.096979573 -8.8218021 -1.3255695 613 74461700 4863 49 325 8927
0.042881537 -8.8291492 -1.3266392 610 74559650 4854 49 329 8934
-0.011236753 -8.7857628 -1.3199154 568 74657270 4465 49 357 8890
-0.065270133 -8.8023281 -1.3225132 623 74754850 4934 49 359 8907
-0.11972205 -8.8343716 -1.327556 555 74853210 4428 49 347 8940
-0.17427729 -8.8512564 -1.3303066 632 74952270 5064 49 348 8958
-0.22858429 -8.8500204 -1.3303066 582 75050880 4645 49 356 8958
-0.28304076 -8.8533897 -1.3310708 609 75147480 4884 49 349 8963
-0.33833832 -8.877162 -1.3350439 603 75245070 4840 49 352 8989
-0.39293239 -8.8778811 -1.3355023 653 75343830 5266 49 313 8992
-0.4489421 -8.9059 -1.3402395 613 75442790 4967 49 337 9023
-0.50458437 -8.9207373 -1.3429902 584 75540320 4758 49 340 9041
-0.55912584 -8.9145145 -1.3425317 568 75638140 4614 49 359 9038
-0.61449319 -8.9207754 -1.3440598 560 75735840 4578 49 326 9048
-0.66833055 -8.9050112 -1.3422261 602 75833930 4892 49 325 9036
-0.72295809 -8.9007425 -1.3422261 614 75930790 4982 49 329 9036
-0.77738625 -8.8941698 -1.3419205 610 76029300 4961 49 371 9034
-0.83102399 -8.8793936 -1.3403924 583 76126830 4738 49 373 9024
-0.88598204 -8.8790436 -1.3411564 618 76223690 5025 49 303 9029
-0.93898749 -8.8596821 -1.339017 596 76322250 4820 49 329 9015
-0.99167854 -8.8390226 -1.3367249 584 76420890 4717 49 313 9000
-1.0457789 -8.83179 -1.3365721 607 76519140 4898 49 360 8999
-1.095304 -8.7879419 -1.3307651 609 76617400 4885 49 308 8961
-1.1507446 -8.7928143 -1.3325989 599 76714560 4798 49 344 8973
-1.205346 -8.7904835 -1.3333629 598 76811690 4806 49 311 8978
-1.2589802 -8.7809658 -1.3330573 588 76910030 4716 49 312 8976
-1.3122503 -8.769166 -1.3324461 607 77008170 4872 49 318 8972
-1.3666413 -8.7648544 -1.3330573 564 77104730 4527 49 361 8976
-1.421187 -8.7611818 -1.3338214 629 77201590 5042 49 335 8981
-1.475575 -8.7561941 -1.3344326 587 77300050 4725 49 320 8985
-1.5282527 -8.7411346 -1.3335158 580 77398250 4644 49 340 8979
-1.5811538 -8.7277031 -1.3329045 626 77495870 5012 49 326 8975
-1.6374087 -8.7324066 -1.3351967 624 77593350 5025 49 372 8990
-1.6928401 -8.7318974 -1.3367249 659 77690980 5325 49 303 9000
-1.7411462 -8.6951828 -1.3325989 622 77788310 4983 49 347 8973
-1.7924659 -8.6746578 -1.3310708 635 77884770 5095 49 327 8963
-1.8491601 -8.6799278 -1.3336686 655 77981730 5254 49 288 8980
-1.906198 -8.6857929 -1.3364192 631 78079420 5085 49 338 8998
-1.9555368 -8.6565819 -1.3336686 631 78178680 5065 49 342 8980
-2.0106292 -8.6530828 -1.3350439 573 78276010 4616 49 318 8989
-2.0685074 -8.6607685 -1.338253 670 78373650 5432 49 338 9010
-2.1355045 -8.7045412 -1.3472689 614 78471330 5019 49 331 9069
-2.1939435 -8.7113991 -1.3504781 663 78567790 5454 49 341 9090
-2.2466125 -8.6949024 -1.3500196 637 78666530 5236 49 332 9087
-2.2984023 -8.6752224 -1.3491027 592 78763410 4865 49 341 9081
-2.3531432 -8.6666784 -1.3500196 621 78860840 5113 49 323 9087
-2.407336 -8.6558847 -1.3506309 684 78958360 5619 49 356 9091
-2.4593196 -8.6371489 -1.3500196 638 79055320 5250 49 363 9087
-2.5150347 -8.6313839 -1.3515477 664 79153880 5464 49 323 9097
-2.56569 -8.6082134 -1.3503252 618 79252280 5090 49 323 9089
-2.623647 -8.6093245 -1.3530759 660 79349510 5450 49 337 9107
-2.6811259 -8.60816 -1.3555208 669 79447350 5543 49 343 9123
-2.7374904 -8.6028481 -1.3573546 675 79544660 5608 49 338 9135
-2.7941961 -8.5981073 -1.3593413 665 79642400 5548 49 354 9148
-2.8506353 -8.5920563 -1.3611749 671 79739930 5615 49 320 9160
-2.8991809 -8.5622349 -1.3591884 644 79837560 5371 49 344 9147
-2.9477904 -8.5330753 -1.3573546 646 79935300 5357 49 350 9135
-3.0040343 -8.5260124 -1.3591884 674 80032680 5623 49 339 9147
-3.0546215 -8.5027695 -1.3584243 653 80130510 5441 49 347 9142
-3.1084354 -8.4885063 -1.3591884 698 80229020 5818 49 298 9147
-3.1618435 -8.4729767 -1.3597996 643 80326590 5379 49 315 9151
-3.2134221 -8.4524927 -1.3596468 696 80424740 5791 49 373 9150
-3.2755744 -8.459342 -1.3640784 682 80523350 5729 49 344 9179
-3.3234305 -8.4289713 -1.3623974 684 80620920 5717 49 321 9168
-3.365515 -8.3845758 -1.3584243 683 80718600 5679 49 405 9142
-3.4168985 -8.3637676 -1.3584243 725 80817160 6039 49 285 9142
-3.4772587 -8.3645449 -1.3620919 655 80914740 5491 49 405 9166
-3.5327518 -8.3530636 -1.3637727 697 81011500 5852 49 365 9177
-3.5858915 -8.3357687 -1.3645369 692 81110410 5808 49 356 9182
-3.6516278 -8.3471088 -1.370191 734 81208400 6204 49 348 9219
-3.717236 -8.3570518 -1.3756922 741 81306250 6330 49 343 9255
-3.7672224 -8.3313847 -1.3752338 654 81403260 5573 49 340 9252
-3.8104303 -8.2910509 -1.3723303 678 81500950 5742 49 393 9233
-3.8578856 -8.2603512 -1.3711078 701 81599090 5941 49 331 9225
-3.9110398 -8.2418814 -1.3720248 744 81696720 6324 49 333 9231
-3.9679751 -8.231082 -1.3743169 677 81794200 5759 49 398 9246
-4.0270982 -8.2243309 -1.3773732 686 81891430 5862 49 368 9266
-4.0744052 -8.1932716 -1.3763034 710 81988700 6059 49 376 9259
-4.1250472 -8.1689997 -1.3764563 645 82086530 5504 49 354 9260
-4.1823077 -8.1576052 -1.3789014 640 82183610 5471 49 362 9276
-4.2350206 -8.1370497 -1.3798182 694 82280670 5960 49 380 9282
-4.2802525 -8.1021729 -1.3782901 677 82379280 5793 49 364 9272
-4.329886 -8.075757 -1.3782901 654 82476650 5597 49 337 9272
-4.3854966 -8.0603228 -1.3802767 680 82575470 5836 49 359 9285
-4.435349 -8.0341272 -1.3804295 651 82673610 5585 49 384 9286
-4.4821472 -8.00245 -1.3796654 671 82771240 5763 49 338 9281
-4.5423946 -7.9945593 -1.3831801 689 82868710 5939 49 340 9304
-4.5943236 -7.9716744 -1.384097 676 82966760 5842 49 351 9310
-4.6516294 -7.9578381 -1.3866948 676 83063720 5864 49 329 9327
-4.7079296 -7.9418979 -1.3889869 685 83161310 5965 49 294 9342
-4.7560625 -7.912014 -1.3888342 710 83258070 6175 49 260 9341
-4.8060632 -7.8852139 -1.3892926 680 83356050 5910 49 352 9344
-4.8652658 -7.8732305 -1.3925017 690 83453310 6043 49 348 9365
-4.9276495 -7.8658409 -1.3966277 749 83551320 6597 49 356 9392
-4.9789996 -7.8404632 -1.3975445 682 83649610 6007 49 333 9398
-5.0259442 -7.8081031 -1.397239 666 83746320 5854 49 338 9396
-5.0705194 -7.772151 -1.396322 676 83843300 5944 49 325 9390
-5.1213832 -7.7458386 -1.397239 654 83940880 5748 49 335 9396
-5.1880689 -7.7430034 -1.4025874 708 84038150 6290 49 328 9431
-5.2438087 -7.7232881 -1.4048796 661 84135980 5887 49 376 9446
-5.283257 -7.6795688 -1.4027402 696 84233510 6156 49 355 9432
-5.3302784 -7.6470065 -1.4027402 681 84331150 6028 49 292 9432
-5.3805199 -7.619 -1.4036571 685 84429550 6085 49 320 9438
-5.4334936 -7.5946836 -1.405338 666 84526670 5920 49 340 9449
-5.486371 -7.570003 -1.407019 660 84624620 5879 49 352 9460
-5.524528 -7.5250444 -1.4048796 667 84722690 5942 49 347 9446
-5.5582123 -7.4743519 -1.4016705 650 84819570 5758 49 316 9425
-5.5974288 -7.4314237 -1.3999896 669 84915300 5902 49 344 9414
-5.6411233 -7.3945813 -1.3995311 698 85013340 6155 49 342 9411
-5.6827641 -7.3551369 -1.3986143 648 85110620 5708 49 305 9405
-5.7198701 -7.3100119 -1.3966277 679 85208200 5969 49 376 9392
-5.7805743 -7.2949157 -1.4006008 658 85305940 5828 49 337 9418
-5.8215151 -7.2546849 -1.399684 679 85404630 5997 49 356 9412
-5.8777614 -7.2334003 -1.4025874 706 85503090 6261 49 350 9431
-5.9339647 -7.2116981 -1.4054909 698 85600320 6206 49 364 9450
-5.9926534 -7.1926146 -1.4090055 666 85698100 5950 49 343 9473
-6.0385857 -7.1579747 -1.409464 681 85796190 6078 49 356 9476
-6.08496 -7.1237936 -1.4100752 668 85893520 5985 49 364 9480
-6.129849 -7.0878181 -1.4103808 718 85990650 6438 49 342 9482
-6.1706195 -7.0470986 -1.4097697 705 86089040 6325 49 341 9478
-6.2052207 -6.9994903 -1.407783 690 86187520 6173 49 343 9465
-6.2434311 -6.9561362 -1.4067134 689 86285790 6137 49 339 9458
-6.2600746 -6.8891726 -1.4007536 688 86384190 6084 49 366 9419
-6.3176174 -6.8673592 -1.4042684 689 86480750 6118 49 315 9442
-6.3690658 -6.8385901 -1.4064077 704 86578790 6268 49 342 9456
-6.4142966 -6.8029766 -1.4071718 676 86675750 6033 49 350 9461
-6.4627419 -6.7706394 -1.4086999 684 86773080 6100 49 336 9471
-6.5144653 -6.7415171 -1.4109921 761 86869940 6837 49 374 9486
-6.5736766 -6.7197852 -1.4149653 711 86968180 6399 49 314 9512
-6.6196527 -6.6842384 -1.4160349 726 87067410 6562 49 314 9519
-6.6633406 -6.6462865 -1.4166462 717 87163800 6493 49 349 9523
-6.7110362 -6.6122117 -1.4181744 708 87262410 6424 49 360 9533
-6.7486486 -6.5681524 -1.4175631 707 87359890 6390 49 379 9529
-6.8002219 -6.5375781 -1.4200081 709 87455890 6441 49 348 9545
-6.8645735 -6.5188665 -1.4252038 772 87553980 7075 49 354 9579
-6.9275088 -6.4982586 -1.4300938 748 87650590 6883 49 328 9611
-6.9730506 -6.4610028 -1.4313163 785 87748380 7246 49 338 9619
-7.0125632 -6.4180956 -1.4313163 716 87846580 6598 49 338 9619
-7.089201 -6.4087443 -1.4391098 737 87944250 6883 49 344 9670
-7.1247048 -6.3618345 -1.4383457 713 88041160 6638 49 279 9665
-7.1606417 -6.3153834 -1.4377345 722 88139420 6710 49 358 9661
-7.2163968 -6.2862573 -1.4412491 705 88236850 6601 49 363 9684
-7.2668195 -6.252172 -1.4436942 721 88334330 6765 49 354 9700
-7.3020325 -6.2049065 -1.4430829 701 88430870 6565 49 320 9696
-7.3498092 -6.1682439 -1.4450696 727 88528920 6824 49 354 9709
-7.3981709 -6.1318588 -1.4472089 707 88625080 6653 49 364 9723
-7.4425387 -6.0919824 -1.4485842 715 88723670 6756 49 312 9732
-7.4890013 -6.0536561 -1.450418 684 88821150 6452 49 388 9744
-7.559217 -6.0341001 -1.4569889 703 88919040 6714 49 359 9787
-7.605413 -5.994945 -1.4588227 674 89016520 6456 49 305 9799
-7.6404943 -5.9469523 -1.4585171 644 89112880 6160 49 372 9797
-7.7011318 -5.9186268 -1.4632543 654 89209890 6286 49 364 9828
-7.7585592 -5.8873911 -1.4673803 682 89307020 6606 49 317 9855
-7.8095655 -5.8509326 -1.4702837 649 89405610 6290 49 334 9874
-7.8540592 -5.8093681 -1.4719646 673 89503800 6566 49 355 9885
-7.9055195 -5.7727227 -1.4750209 657 89600830 6416 49 351 9905
-7.9431968 -5.7258401 -1.4754794 674 89697490 6595 49 363 9908
-7.9838166 -5.6810045 -1.476549 701 89795020 6865 49 312 9915
-8.0298462 -5.6398616 -1.4786885 681 89893160 6673 49 359 9929
-8.0797329 -5.601182 -1.4815919 649 89991360 6385 49 336 9948
-8.1278152 -5.5609865 -1.4841897 657 90087650 6497 49 319 9965
-8.1798019 -5.5231767 -1.4875516 663 90185690 6584 49 331 9987
-8.226697 -5.4816499 -1.4899967 686 90282670 6832 49 378 10003
-8.2601767 -5.4310684 -1.4899967 668 90380000 6663 49 358 10003
-8.2883711 -5.3770561 -1.4890797 674 90476760 6716 49 345 9997
-8.2787571 -5.2989287 -1.4812863 654 90574240 6438 49 367 9946
-8.3244848 -5.2564735 -1.4837313 667 90673250 6609 49 350 9962
-8.3792305 -5.2194033 -1.4878572 669 90770820 6645 49 345 9989
-8.432991 -5.1813416 -1.4918303 683 90869230 6821 49 337 10015
-8.4468756 -5.1187449 -1.4886214 679 90966660 6759 49 378 9994
-8.5027256 -5.081521 -1.4930528 657 91064040 6570 49 354 10023
-8.5626936 -5.0463128 -1.4982486 664 91160850 6673 49 373 10057
-8.5977678 -4.9961605 -1.4990126 644 91258530 6502 49 317 10062
-8.6634197 -4.9634528 -1.505278 693 91355440 7062 49 357 10103
-8.7203875 -4.9252667 -1.5100151 679 91453080 6954 49 330 10134
-8.7841196 -4.8904138 -1.5159749 680 91549690 7009 49 318 10173
-8.8312902 -4.8459311 -1.5190312 649 91648130 6700 49 357 10193
-8.879982 -4.8019934 -1.5223931 645 91745660 6695 49 381 10215
-8.930212 -4.7585697 -1.5260606 648 91843450 6758 49 385 10239
-8.9758673 -4.7124128 -1.528964 654 91941430 6851 49 341 10258
-9.0160246 -4.6631508 -1.5309507 656 92039330 6897 49 369 10271
-9.0770483 -4.6243396 -1.5366046 675 92137470 7140 49 350 10308
-9.1299849 -4.5809655 -1.5408834 689 92234900 7327 49 363 10336
-9.1889324 -4.5401797 -1.546232 674 92332790 7229 49 328 10371
-9.251276 -4.5005713 -1.5521916 656 92429180 7085 49 367 10410
-9.3402185 -4.4731736 -1.5627358 633 92526980 6928 49 357 10479
-9.4407911 -4.4503303 -1.5752665 646 92624250 7161 49 342 10561
-9.5046768 -4.4093695 -1.5815319 686 92722900 7679 49 324 10602
-9.5063801 -4.3394771 -1.5772531 627 92820490 6991 49 316 10574
-9.5950336 -4.3089986 -1.5877972 622 92918990 7009 49 373 10643
-9.6447964 -4.2604251 -1.5917703 604 93016410 6851 49 362 10669
-9.6671305 -4.1995907 -1.5911591 672 93112770 7613 49 301 10665
-9.733614 -4.1576629 -1.5980357 654 93210250 7468 49 342 10710
-9.750741 -4.0944171 -1.5966604 647 93308440 7386 49 340 10701
-9.8140488 -4.050344 -1.6030785 601 93406120 6915 49 325 10743
-9.8936653 -4.0123324 -1.6122473 659 93501910 7672 49 297 10803
-9.9942989 -3.9819078 -1.6249309 630 93600680 7446 49 310 10886
-10.071921 -3.9413953 -1.633794 631 93698150 7528 49 288 10944
-10.133739 -3.8940537 -1.6400594 587 93794710 7070 49 240 10985
-10.211071 -3.8520305 -1.6489226 621 93891320 7558 49 249 11043
-10.322559 -3.8218994 -1.6634398 548 93988800 6770 49 261 11138
-10.355104 -3.7618637 -1.6649679 600 94085240 7415 49 269 11148
-10.404988 -3.7078748 -1.6693995 514 94183500 6383 49 240 11177
-10.490983 -3.6661284 -1.6797909 487 94281280 6121 49 227 11245
-10.560962 -3.6180212 -1.6875843 472 94378610 5987 49 212 11296
-10.659786 -3.5789428 -1.700115 436 94475790 5619 49 225 11378
-10.784812 -3.5474322 -1.7169244 432 94572750 5689 49 228 11488
-10.873162 -3.5027039 -1.7277743 407 94669460 5416 49 196 11559
-10.957597 -3.4558353 -1.7380127 370 94767550 4977 49 207 11626
-11.003147 -3.3961129 -1.7419858 360 94865890 4855 49 163 11652
-11.029455 -3.3302488 -1.7429028 330 94963740 4468 49 149 11658
-11.039255 -3.2594326 -1.7412218 316 95060030 4263 49 205 11647
-11.046703 -3.1880736 -1.7392352 331 95158790 4466 49 230 11634
-11.034669 -3.1113827 -1.7341924 373 95256370 4996 49 205 11601
-11.062127 -3.0459776 -1.7355677 340 95351910 4561 49 193 11610
-11.003303 -2.9572697 -1.7231898 381 95450060 5043 49 188 11529
-10.997342 -2.8834336 -1.7193695 189 95546870 2471 49 146 11504
-10.975572 -2.8058665 -1.7131041 289 95643580 3782 49 135 11463
-10.992581 -2.7384686 -1.7131041 329 95741770 4316 49 181 11463
-11.017821 -2.6730647 -1.7144794 367 95839250 4796 49 182 11472
-11.030168 -2.604502 -1.7138681 349 95936990 4567 49 199 11468
-11.03342 -2.5338979 -1.7118816 356 96035090 4640 49 163 11455
-11.070944 -2.4711015 -1.7153963 329 96131580 4328 49 178 11478
-11.088796 -2.4037528 -1.7158548 332 96229620 4356 49 181 11481
-11.097533 -2.3344476 -1.7149379 361 96327300 4733 49 173 11475
-11.119394 -2.2678902 -1.7161604 344 96424940 4490 49 172 11483
-11.116619 -2.1963644 -1.7135626 361 96522990 4725 49 185 11466
-11.143476 -2.1307106 -1.7157019 340 96620050 4461 49 170 11480
-11.15634 -2.0622954 -1.7157019 339 96716660 4461 49 173 11480
-11.156137 -1.9915452 -1.7137154 357 96815470 4674 49 177 11467
-11.193468 -1.9274145 -1.7176886 376 96913510 4957 49 192 11493
-11.212884 -1.85999 -1.7189111 358 97010570 4702 49 172 11501
-11.210423 -1.788974 -1.7167716 352 97108370 4637 49 184 11487
-11.228026 -1.7212025 -1.7178414 350 97205080 4593 49 157 11494
-11.246198 -1.6534261 -1.7190639 351 97303790 4623 49 186 11502
-11.262003 -1.5852158 -1.7199807 335 97401570 4404 49 165 11508
-11.242135 -1.5121323 -1.7153963 305 97498690 3987 49 159 11478
-11.258063 -1.4440033 -1.7164661 365 97596290 4784 49 154 11485
-11.277502 -1.3762145 -1.7181469 400 97693300 5266 49 182 11496
-11.293588 -1.3079004 -1.7193695 900 97789890 11878 49 282 11504
-11.317119 -1.2403018 -1.7218145 878 97889020 11608 49 261 11520
-11.329431 -1.1713459 -1.7225785 797 97986390 10572 49 241 11525
-11.322634 -1.1004698 -1.7204392 322 98084640 4221 49 161 11511
-11.33311 -1.0313329 -1.7210504 296 98181200 3895 49 142 11515
-11.329377 -0.96093982 -1.7195222 302 98278010 3981 49 148 11505
-11.313386 -0.88970202 -1.7161604 280 98376300 3672 49 173 11483
-11.349188 -0.82248122 -1.7208976 297 98473110 3920 49 152 11514
-11.334299 -0.75152135 -1.7178414 289 98569110 3801 49 154 11494
-11.362372 -0.68338454 -1.7215089 258 98666530 3403 49 175 11518
-11.360431 -0.61333394 -1.720592 247 98763860 3242 49 156 11512
-11.374838 -0.54413527 -1.7222729 261 98862920 3449 49 144 11523
-11.375001 -0.47420689 -1.7218145 261 98960870 3447 49 143 11520
-11.380659 -0.40450752 -1.7222729 242 99057430 3183 49 147 11523
-11.36811 -0.33423424 -1.7199807 257 99155990 3372 49 160 11508
-11.374887 -0.26458931 -1.7207448 254 99252580 3349 49 158 11513
-11.387165 -0.19497515 -1.7224257 242 99350170 3185 49 134 11524
-11.382217 -0.12503618 -1.7215089 240 99448770 3164 49 172 11518
-11.387712 -0.055217672 -1.7222729 257 99544260 3381 49 164 11523
-11.399695 0.014672641 -1.7241067 266 99641260 3522 49 145 11535
-11.40532 0.084663756 -1.7250236 278 99737630 3686 49 151 11541
-11.404586 0.15464389 -1.7250236 263 99835660 3484 49 167 11541
-10.509458 -0.17950329 -1.6899971 302 0 3409 50 186 10652
-10.531081 -0.11524238 -1.6934052 284 96350 3214 50 209 10673
-10.541457 -0.050670389 -1.6950281 290 192640 3287 50 120 10683
-10.542557 0.014013018 -1.6951904 308 289670 3496 50 198 10684
-10.56102 0.078840137 -1.698274 317 388330 3621 50 217 10703
-10.58895 0.14402831 -1.7029804 324 485160 3713 50 184 10732
-10.603652 0.20930935 -1.7055771 328 582300 3771 50 181 10748
-10.609073 0.27454671 -1.7067132 318 677940 3657 50 217 10755
-10.608174 0.33966914 -1.7068754 316 776240 3635 50 208 10756
-10.612793 0.40501651 -1.7080115 330 873710 3802 50 206 10763
-10.607151 0.46999681 -1.7075247 327 970220 3778 50 201 10760
-10.615893 0.53566861 -1.7094722 342 1068220 3947 50 218 10772
-10.608466 0.60057342 -1.708823 324 1165750 3736 50 207 10768
-10.615414 0.66633415 -1.7106082 318 1261890 3675 50 198 10779
-10.646564 0.73389858 -1.7164508 348 1359680 4062 50 202 10815
-10.632021 0.79847211 -1.7148278 299 1457060 3472 50 184 10805
-10.628888 0.86385375 -1.7151524 324 1555500 3763 50 207 10807
-10.631251 0.92974269 -1.7164508 336 1651860 3910 50 196 10815
-10.65089 0.99734855 -1.7206703 315 1749440 3693 50 203 10841
-10.659298 1.0641524 -1.7231047 314 1848200 3680 50 202 10856
-10.66925 1.1313049 -1.7258637 304 1944960 3574 50 193 10873
-10.690544 1.1999401 -1.7305702 300 2043460 3544 50 215 10902
-10.695719 1.2670221 -1.7326801 317 2140070 3770 50 182 10915
-10.671097 1.3305509 -1.7299211 312 2237190 3683 50 221 10898
-10.689149 1.3994603 -1.734303 314 2333950 3724 50 230 10925
-10.702846 1.468105 -1.7380357 318 2432200 3792 50 189 10948
-10.70438 1.5352895 -1.739821 306 2529780 3654 50 208 10959
-10.717203 1.6043007 -1.7435536 289 2626440 3463 50 211 10982
-10.718857 1.6718546 -1.7455012 285 2724080 3426 50 182 10994
-10.728851 1.7409112 -1.7489094 319 2821190 3861 50 207 11015
-10.722833 1.8075294 -1.7497208 207 2919230 2506 50 185 11020
-10.733895 1.8771987 -1.7534535 76 3016140 911 50 148 11043
-10.781403 1.9537566 -1.7633533 365 3114510 4492 50 193 11104
-10.77309 2.0206008 -1.7640026 339 3213470 4173 50 204 11108
-10.780832 2.0906096 -1.7674106 307 3308380 3770 50 187 11129
-10.786184 2.1604016 -1.7704942 298 3407900 3693 50 210 11148
-10.803648 2.232934 -1.7756876 336 3504660 4174 50 235 11180
-10.810975 2.3037057 -1.779258 320 3602310 3994 50 196 11202
-10.792782 2.3691511 -1.7786089 329 3698970 4117 50 196 11198
-10.816541 2.4440277 -1.7851006 349 3796400 4386 50 201 11238
-10.829214 2.5168281 -1.7898071 330 3893460 4165 50 215 11267
-10.820285 2.5848322 -1.7909431 336 3991450 4247 50 212 11274
-10.832012 2.6579943 -1.7956496 322 4089180 4091 50 206 11303
-10.861428 2.7359767 -1.8034396 346 4185690 4447 50 216 11351
-10.857812 2.8060257 -1.8057117 312 4283980 4006 50 209 11365
-10.864235 2.8789134 -1.809769 308 4380690 3974 50 194 11390
-10.899693 2.9600015 -1.8188574 328 4479770 4276 50 186 11446
-10.890832 3.029469 -1.8204803 329 4576980 4306 50 219 11456
-10.874886 3.0970478 -1.8209673 337 4674770 4414 50 218 11459
-10.870835 3.1681335 -1.8235639 323 4770970 4216 50 215 11475
-10.897527 3.2485876 -1.8315163 341 4868390 4491 50 212 11524
-10.906649 3.3243101 -1.8365474 332 4965570 4412 50 184 11555
-10.927498 3.4040813 -1.8436882 351 5063100 4698 50 208 11599
-10.935555 3.4803433 -1.8487194 337 5160940 4542 50 250 11630
-10.92244 3.550122 -1.8501799 346 5257900 4672 50 241 11639
-10.913562 3.6214244 -1.852452 359 5354810 4850 50 208 11653
-10.920109 3.6981316 -1.8574831 369 5451620 4999 50 212 11684
-10.927989 3.7756996 -1.8628387 357 5550230 4875 50 217 11717
-10.922299 3.848912 -1.8659223 344 5646530 4711 50 224 11736
-10.928193 3.9265339 -1.8711157 354 5744470 4891 50 216 11768
-10.937251 4.0057297 -1.8769583 374 5840830 5197 50 232 11804
-10.9402 4.0831141 -1.881827 339 5939130 4735 50 218 11834
