# .PCD v0.7 - Point Cloud Data file format
VERSION 0.7
FIELDS x y z intensity t reflectivity ring ambient range
SIZE 4 4 4 4 4 2 1 2 4
TYPE F F F F U U U U U
COUNT 1 1 1 1 1 1 1 1 1
WIDTH 774
HEIGHT 1
VIEWPOINT 0 0 0 1 0 0 0
POINTS 774
DATA ascii
-0.36934677 -6.4231267 -1.5212251 822 76341520 3590 58 208 6620
-0.40461734 -6.3557606 -1.5054251 754 76438480 3230 58 219 6553
-0.44103718 -6.3163195 -1.4964639 660 76537140 2793 58 233 6515
-0.48081547 -6.3270607 -1.4997654 676 76635850 2869 58 220 6529
-0.52416247 -6.3791976 -1.5132072 697 76734100 3007 58 209 6586
-0.56910759 -6.4416876 -1.529243 712 76832390 3134 58 247 6654
-0.61154783 -6.4690337 -1.5367892 721 76929570 3217 58 259 6686
-0.65765512 -6.5289755 -1.5523534 729 77026780 3304 58 252 6752
-0.70038933 -6.5499411 -1.5584847 707 77123850 3240 58 197 6778
-0.73936445 -6.5348983 -1.5558907 690 77223430 3146 58 252 6767
-0.78152037 -6.5476074 -1.5601355 712 77320040 3259 58 228 6785
-0.82180208 -6.543653 -1.5603713 685 77416850 3136 58 237 6786
-0.8599062 -6.5230722 -1.5565982 700 77515400 3190 58 213 6770
-0.89925039 -6.5128598 -1.5554191 690 77613710 3144 58 242 6765
-0.94252646 -6.5303035 -1.5610788 695 77711430 3195 58 215 6789
-0.98055232 -6.5109439 -1.5577773 694 77808910 3181 58 224 6775
-1.0195808 -6.4990444 -1.5563624 644 77906700 2948 58 197 6769
-1.0498946 -6.4341598 -1.5419773 281 78004080 1254 58 151 6708
-1.0851331 -6.4026847 -1.535846 248 78100470 1102 58 144 6682
-1.1280997 -6.4169631 -1.541034 343 78197600 1531 58 142 6704
-1.1657113 -6.4003596 -1.5386758 270 78295330 1205 58 135 6694
-1.2083803 -6.411231 -1.5431564 254 78394700 1140 58 123 6713
-1.2501118 -6.4160962 -1.5462221 222 78492030 995 58 133 6726
-1.2971232 -6.446413 -1.5556549 374 78589880 1702 58 147 6766
-1.3409983 -6.4592662 -1.560843 321 78687550 1468 58 159 6788
-1.3799963 -6.4480658 -1.5601355 286 78785380 1307 58 137 6785
-1.4145149 -6.4167004 -1.5544758 250 78882920 1133 58 139 6761
-1.46031 -6.4363317 -1.5615504 371 78979830 1701 58 132 6791
-1.4997751 -6.4272504 -1.5615504 410 79077410 1880 58 148 6791
-1.5434891 -6.4358821 -1.566031 258 79175040 1191 58 129 6810
-1.5748161 -6.3932643 -1.5577773 217 79272110 981 58 155 6775
-1.6213983 -6.4126878 -1.5650877 257 79370720 1180 58 150 6806
-1.6614472 -6.4054403 -1.5657952 256 79469220 1181 58 153 6809
-1.7012184 -6.3970037 -1.5662668 229 79566500 1047 58 144 6811
-1.7399267 -6.3845696 -1.5657952 230 79664440 1060 58 149 6809
-1.78142 -6.3821974 -1.5679176 211 79761870 976 58 127 6818
-1.8250853 -6.3870316 -1.5719265 214 79859740 989 58 139 6835
-1.8530605 -6.3374701 -1.5622579 188 79957340 861 58 161 6794
-1.8963662 -6.3408775 -1.566031 244 80054960 1127 58 110 6810
-1.9400675 -6.3449211 -1.57004 181 80152860 838 58 150 6827
-1.9853387 -6.3533044 -1.575228 215 80250330 998 58 147 6849
-2.0231025 -6.3372998 -1.5742847 243 80348210 1133 58 143 6845
-2.064961 -6.3340063 -1.5766429 215 80446870 1000 58 140 6855
-2.1120718 -6.3461132 -1.5830101 205 80544550 961 58 131 6882
-2.150346 -6.3311939 -1.5825385 213 80642860 1003 58 129 6880
-2.177382 -6.283905 -1.5738131 196 80741500 913 58 122 6843
-2.2210784 -6.2850871 -1.5775862 190 80839110 883 58 152 6859
-2.2645419 -6.2850547 -1.5811235 189 80936920 882 58 153 6874
-2.3050735 -6.276515 -1.5825385 206 81035580 965 58 131 6880
-2.3377523 -6.2467804 -1.5785295 207 81133310 970 58 128 6863
-2.3839993 -6.2532039 -1.5839534 160 81231450 753 58 143 6886
-2.430413 -6.259294 -1.5893773 196 81329150 931 58 120 6909
-2.4723463 -6.2533011 -1.5917355 212 81427240 1004 58 151 6919
-2.5081296 -6.2317028 -1.5900847 196 81525120 931 58 125 6912
-2.5422676 -6.2063036 -1.5874907 283 81622240 1338 58 126 6901
-2.5799272 -6.1896906 -1.5872549 181 81720040 857 58 112 6900
-2.6208925 -6.1809015 -1.5891414 188 81818230 891 58 148 6908
-2.6630015 -6.1745195 -1.5917355 180 81916010 851 58 134 6919
-2.7156687 -6.1918826 -1.6006966 170 82013590 812 58 133 6957
-2.7595463 -6.1884165 -1.604234 189 82110860 909 58 127 6972
-2.7862327 -6.1465845 -1.597631 173 82208290 828 58 141 6944
-2.825928 -6.1337857 -1.5988101 160 82306230 768 58 120 6949
-2.8725753 -6.135694 -1.6039981 179 82403410 860 58 127 6971
-2.9164302 -6.1311164 -1.6075354 158 82500570 766 58 112 6986
-2.9468079 -6.0982308 -1.6035265 172 82599230 830 58 130 6969
-2.9871674 -6.0861416 -1.6051772 170 82696710 817 58 130 6976
-3.0352924 -6.0894418 -1.6110728 177 82795570 862 58 122 7001
-3.0743546 -6.0741715 -1.612016 188 82893860 917 58 126 7005
-3.1066816 -6.0456853 -1.609422 145 82991610 704 58 134 6994
-3.1387751 -6.0170312 -1.606828 193 83089180 930 58 154 6983
-3.1865487 -6.0182714 -1.6124877 174 83187330 844 58 119 7007
-3.2316957 -6.0140147 -1.6167325 174 83284350 847 58 151 7025
-3.2657447 -5.9889526 -1.6153175 173 83382030 847 58 121 7019
-3.3010194 -5.9662509 -1.6146101 184 83478940 901 58 122 7016
-3.3461273 -5.9611378 -1.6188548 194 83577030 949 58 137 7034
-3.3792753 -5.9345827 -1.6172041 186 83674460 913 58 134 7027
-3.4165976 -5.9154191 -1.6176757 222 83772550 1086 58 150 7029
-3.4523385 -5.8935051 -1.6174399 199 83870970 977 58 138 7028
-3.4849613 -5.8663626 -1.6157892 224 83967730 1093 58 140 7021
-3.5228965 -5.8481989 -1.6167325 245 84064790 1197 58 159 7025
-3.569351 -5.8438888 -1.6216847 273 84162460 1338 58 167 7046
-3.6051412 -5.821878 -1.6216847 202 84259960 991 58 159 7046
-3.6438956 -5.8045859 -1.6230996 245 84357880 1208 58 135 7052
-3.7023978 -5.8181934 -1.6334757 292 84455530 1467 58 184 7096
-3.743295 -5.8035331 -1.6358339 286 84553350 1434 58 126 7106
-3.7836199 -5.7877765 -1.6379563 312 84651810 1563 58 135 7115
-3.8174517 -5.7620211 -1.6372489 281 84749020 1410 58 141 7112
-3.8413601 -5.7215457 -1.6322966 285 84847120 1423 58 130 7091
-3.8654625 -5.6817975 -1.6275802 262 84945380 1298 58 163 7071
-3.9013557 -5.6595731 -1.6280518 274 85042340 1360 58 147 7073
-3.9560397 -5.6642108 -1.6365414 251 85138180 1251 58 157 7109
-3.9940879 -5.6445899 -1.6379563 238 85236430 1187 58 167 7115
-4.0105305 -5.5947013 -1.6304101 227 85333800 1128 58 141 7083
-4.060771 -5.5920057 -1.637013 311 85431480 1561 58 145 7111
-4.1030679 -5.5779438 -1.6403145 267 85529370 1344 58 148 7125
-4.138958 -5.5550008 -1.641022 300 85628280 1513 58 141 7128
-4.1758919 -5.5333786 -1.6422011 324 85726780 1631 58 164 7133
-4.218617 -5.5192332 -1.6457384 291 85824150 1480 58 155 7148
-4.2583513 -5.5009294 -1.6480966 332 85922050 1694 58 168 7158
-4.3016171 -5.4869342 -1.6518697 313 86020340 1600 58 135 7174
-4.318285 -5.4391251 -1.6452668 303 86117820 1536 58 134 7146
-4.3747153 -5.4413071 -1.6542279 342 86215100 1748 58 152 7184
-4.4012713 -5.4060721 -1.6516339 353 86313710 1810 58 134 7173
-4.4436316 -5.3902125 -1.6551712 370 86412250 1895 58 146 7188
-4.4872079 -5.3755283 -1.6591802 409 86510660 2116 58 164 7205
-4.5201068 -5.3478942 -1.6591802 457 86609150 2360 58 163 7205
-4.5572586 -5.3252273 -1.6608309 419 86707150 2173 58 139 7212
-4.5974841 -5.3059778 -1.6636608 409 86804120 2127 58 169 7224
-4.6337996 -5.2820516 -1.6650757 407 86901280 2121 58 155 7230
-4.6667676 -5.2542462 -1.6653115 424 86998760 2210 58 158 7231
-4.7099652 -5.2377973 -1.6693205 421 87095790 2205 58 148 7248
-4.7531362 -5.2210159 -1.6733294 370 87194180 1935 58 166 7265
-4.7831068 -5.1896091 -1.672622 402 87293610 2102 58 164 7262
-4.8141966 -5.159452 -1.6723861 457 87391450 2397 58 154 7261
-4.8477654 -5.1319351 -1.6730936 422 87488930 2214 58 167 7264
-4.8751335 -5.0978789 -1.6716787 533 87586510 2796 58 143 7258
-4.9218678 -5.0839291 -1.6771024 439 87682800 2315 58 156 7281
-4.9482083 -5.0487747 -1.6754518 466 87781040 2458 58 176 7274
-4.9804626 -5.0196977 -1.6759233 442 87877870 2327 58 170 7276
-5.0297632 -5.0075569 -1.6822906 420 87975800 2237 58 178 7303
-5.0673227 -4.9834146 -1.6846488 486 88074210 2591 58 177 7313
-5.0901375 -4.9447799 -1.6820548 425 88172140 2263 58 185 7302
-5.1252904 -4.9181643 -1.6837054 474 88269160 2519 58 174 7309
-5.1708875 -4.9013319 -1.6888936 444 88367610 2371 58 198 7331
-5.2115045 -4.8794746 -1.6924309 454 88465250 2436 58 181 7346
-5.2370658 -4.8434467 -1.691016 504 88562980 2711 58 202 7340
-5.2774482 -4.8210535 -1.6945533 489 88659740 2636 58 207 7355
-5.3177524 -4.7983465 -1.6980906 520 88757880 2806 58 177 7370
-5.3441925 -4.7630405 -1.6971473 505 88855570 2730 58 216 7366
-5.3849878 -4.7404342 -1.7009203 520 88953050 2814 58 202 7382
-5.4183731 -4.7111292 -1.7023354 519 89050730 2818 58 198 7388
-5.4626598 -4.6910901 -1.7072875 522 89148820 2851 58 194 7409
-5.4943056 -4.6599979 -1.7082309 516 89246500 2827 58 190 7413
-5.5213056 -4.6249499 -1.7077591 533 89343110 2913 58 189 7411
-5.5615597 -4.6008959 -1.7115324 533 89440340 2925 58 191 7427
-5.5836654 -4.5617657 -1.7096457 531 89537610 2920 58 173 7419
-5.6183577 -4.5329108 -1.7117682 480 89636420 2635 58 167 7428
-5.6681061 -4.515914 -1.7186069 478 89734870 2655 58 177 7457
-5.7079287 -4.4906645 -1.72238 508 89832090 2829 58 170 7473
-5.746119 -4.4639039 -1.7256815 495 89931050 2761 58 173 7487
-5.7849665 -4.4374347 -1.7292188 563 90026700 3154 58 184 7502
-5.8136349 -4.403029 -1.7296906 547 90124990 3065 58 201 7504
-5.8506589 -4.3748398 -1.7327561 553 90223440 3119 58 231 7517
-5.8867741 -4.3457851 -1.735586 546 90319900 3083 58 249 7529
-5.9447422 -4.332478 -1.7450188 583 90418190 3323 58 233 7569
-5.9727917 -4.2970557 -1.7454904 597 90515420 3404 58 249 7571
-6.0418296 -4.2907128 -1.7582248 570 90612940 3290 58 241 7625
-6.0775924 -4.2602539 -1.7610546 575 90709900 3336 58 236 7637
-6.0988235 -4.2195644 -1.7596397 547 90807650 3167 58 236 7631
-6.1398473 -4.1924763 -1.7641203 574 90906810 3348 58 222 7650
-6.175127 -4.1612411 -1.7669501 537 91004600 3142 58 218 7662
-6.2256284 -4.139955 -1.7742606 560 91103260 3304 58 199 7693
-6.2687879 -4.1134071 -1.7794486 601 91200840 3572 58 212 7715
-6.2841206 -4.0685272 -1.7766188 631 91298470 3733 58 223 7703
-6.317975 -4.0356464 -1.7792128 581 91395490 3434 58 228 7714
-6.3491955 -4.0009494 -1.7810994 480 91493370 2857 58 214 7722
-6.3703241 -3.9598637 -1.7801561 459 91590500 2716 58 233 7718
-6.396987 -3.9222257 -1.7808635 494 91688390 2933 58 232 7721
-6.4309111 -3.8889353 -1.7836934 480 91786470 2866 58 212 7733
-6.4337869 -3.8369582 -1.7777979 484 91883840 2866 58 195 7708
-6.4630723 -3.8008575 -1.7794486 462 91981640 2732 58 231 7715
-6.482069 -3.7586918 -1.7782695 466 92079580 2760 58 208 7710
-6.5066972 -3.7198124 -1.7787412 479 92177820 2838 58 211 7712
-6.5336318 -3.682204 -1.7799203 507 92275920 3014 58 226 7717
-6.5595007 -3.6439328 -1.7808635 464 92374260 2748 58 239 7721
-6.5834403 -3.6045494 -1.7813352 461 92471890 2738 58 229 7723
-6.6216831 -3.5728545 -1.7858158 516 92569980 3081 58 216 7742
-6.6477714 -3.5344386 -1.7869949 503 92666590 3001 58 218 7747
-6.6917143 -3.5053072 -1.7931262 558 92764640 3355 58 207 7773
-6.7329588 -3.474432 -1.7985501 626 92862110 3788 58 193 7796
-6.7558837 -3.4339347 -1.7990217 628 92960920 3809 58 178 7798
-6.7681365 -3.3880663 -1.7966635 651 93058770 3939 58 185 7788
-6.7774668 -3.3408878 -1.7935979 638 93157410 3841 58 195 7775
-6.7855992 -3.2932985 -1.7902964 602 93255110 3616 58 198 7761
-6.7907724 -3.2444782 -1.7862874 609 93351670 3636 58 199 7744
-6.8079138 -3.201509 -1.78558 648 93449390 3872 58 211 7741
-6.8283119 -3.1600845 -1.7858158 609 93547740 3635 58 181 7742
-6.8351917 -3.1124885 -1.7825143 646 93645680 3843 58 176 7728
-6.8639164 -3.0748606 -1.7851083 664 93741670 3960 58 203 7739
-6.8773184 -3.0303352 -1.7836934 665 93840630 3957 58 167 7733
-6.9011326 -2.9903982 -1.7851083 696 93938330 4150 58 231 7739
-6.9220333 -2.9491401 -1.7858158 772 94035040 4608 58 241 7742
-6.9265537 -2.9009802 -1.7822785 710 94131900 4229 58 187 7727
-6.9487166 -2.8602748 -1.7834576 701 94229630 4167 58 107 7732
-6.9634333 -2.8164911 -1.7827501 737 94326240 4386 58 212 7729
-6.9823899 -2.7744291 -1.7832217 724 94424750 4322 58 222 7731
-7.0128617 -2.7368336 -1.7867591 729 94522740 4351 58 216 7746
-7.0313373 -2.6944475 -1.7872307 745 94620270 4461 58 222 7748
-7.0440993 -2.6498847 -1.7862874 727 94717640 4350 58 194 7744
-7.0611382 -2.6069496 -1.7865232 710 94814800 4249 58 207 7745
-7.0669503 -2.5599329 -1.7839292 730 94913000 4356 58 206 7734
-7.0623794 -2.5093641 -1.7787412 692 95010020 4106 58 190 7712
-7.0803967 -2.4669423 -1.7794486 725 95108630 4306 58 171 7715
-7.105516 -2.4269068 -1.7820426 693 95206710 4120 58 202 7726
-7.1294889 -2.3863473 -1.7844008 735 95303170 4377 58 196 7736
-7.1439972 -2.3425567 -1.7844008 699 95402180 4166 58 206 7736
-7.1545353 -2.2974892 -1.7834576 732 95499930 4354 58 191 7732
-7.1749873 -2.2555869 -1.7851083 662 95595720 3960 58 209 7739
-7.1886921 -2.2115195 -1.7851083 692 95694010 4135 58 203 7739
-7.1788621 -2.160367 -1.7792128 652 95791120 3862 58 222 7714
-7.1975765 -2.117924 -1.7806277 687 95888100 4079 58 185 7720
-7.2365866 -2.0812423 -1.7872307 645 95986490 3863 58 183 7748
-7.243607 -2.0352228 -1.7858158 618 96084190 3682 58 201 7742
-7.2531471 -1.9899671 -1.7851083 586 96182010 3493 58 202 7739
-7.2652206 -1.9454252 -1.7851083 621 96280410 3714 58 208 7739
-7.2807817 -1.9017925 -1.7860516 557 96377190 3331 58 175 7743
-7.3083234 -1.8611603 -1.7900605 586 96475480 3513 58 197 7760
-7.3243217 -1.8174527 -1.7912396 724 96573420 4357 58 270 7765
-7.3211665 -1.769053 -1.7877023 1008 96671250 6035 58 248 7750
-7.3366132 -1.7252102 -1.7888814 1010 96769490 6062 58 241 7755
-7.3451662 -1.6797278 -1.7884098 1059 96866820 6347 58 235 7753
-7.3553343 -1.6346271 -1.7884098 1005 96963630 6021 58 260 7753
-7.3680758 -1.5900799 -1.7891173 589 97062620 3526 58 214 7756
-7.3700843 -1.5432467 -1.7872307 476 97161000 2847 58 200 7748
-7.3908429 -1.500316 -1.7900605 535 97258230 3211 58 204 7760
-7.4084916 -1.4566261 -1.7921829 548 97356320 3297 58 202 7769
-7.4182444 -1.4113226 -1.7924188 531 97453230 3203 58 177 7770
-7.440145 -1.3682398 -1.7957202 534 97552090 3231 58 211 7784
-7.4570117 -1.3240914 -1.7978426 551 97650190 3337 58 184 7793
-7.459249 -1.2773268 -1.7964277 543 97747510 3281 58 210 7787
-7.4583163 -1.2301102 -1.7943053 545 97845190 3294 58 178 7778
-7.4628444 -1.1838667 -1.7935979 514 97942670 3092 58 190 7775
-7.4699683 -1.1380533 -1.7935979 481 98038260 2898 58 183 7775
-7.4758487 -1.0920565 -1.793362 487 98138800 2927 58 194 7774
-7.4766345 -1.0453575 -1.7919471 486 98236380 2923 58 176 7768
-7.4674959 -0.99740297 -1.788174 488 98334890 2911 58 179 7752
-7.4840794 -0.95291501 -1.790768 452 98431650 2710 58 167 7763
-7.4907503 -0.90709251 -1.7910038 413 98528710 2469 58 160 7764
-7.5280347 -0.86477399 -1.7987859 440 98627270 2670 58 206 7797
-7.5525212 -0.82066679 -1.8035023 433 98724330 2636 58 188 7817
-7.5226121 -0.77074301 -1.7950128 423 98820540 2557 58 188 7781
-7.5417094 -0.72596782 -1.7985501 407 98918220 2463 58 194 7796
-7.5518293 -0.68020236 -1.799965 410 99015750 2480 58 194 7802
-7.5432715 -0.63279587 -1.7968993 428 99115120 2587 58 173 7789
-7.5421681 -0.58612269 -1.7957202 407 99213270 2456 58 197 7784
-7.5630703 -0.54108262 -1.799965 401 99310080 2425 58 176 7802
-7.5652781 -0.49460289 -1.7997292 445 99408790 2704 58 190 7801
-7.5730209 -0.44846132 -1.8009083 423 99505750 2573 58 203 7806
-7.6018319 -0.40337691 -1.8072755 452 99603440 2756 58 208 7833
-7.6245489 -0.35768235 -1.8122277 444 99702300 2722 58 208 7854
-7.6227164 -0.31073382 -1.8112844 476 99798100 2923 58 201 7850
-7.5972853 -0.26301348 -1.8046814 465 99895310 2840 58 202 7822
-7.5948706 -0.2162817 -1.8037381 465 99991920 2838 58 202 7818
-7.6009126 -0.16978505 -1.8049172 522 100090210 3177 58 206 7823
-7.6560254 -0.41244212 -1.9027498 369 0 2293 59 153 7909
-7.6874595 -0.36684725 -1.9101191 436 96610 2740 59 148 7939
-7.7050624 -0.32031691 -1.9140494 438 193270 2754 59 95 7955
-7.6971951 -0.27268925 -1.911593 440 290740 2757 59 131 7945
-7.7084126 -0.22573984 -1.9140494 457 389710 2877 59 156 7955
-7.7067456 -0.17837004 -1.9133126 413 487030 2590 59 162 7952
-7.7193255 -0.13127805 -1.9162602 516 584560 3264 59 159 7964
-7.7287092 -0.084006481 -1.9184711 569 681890 3601 59 184 7973
-7.7281098 -0.036577735 -1.9182254 522 779310 3301 59 172 7972
-7.734005 0.010849263 -1.9196993 515 877160 3274 59 178 7978
-7.7386398 0.058340028 -1.9209275 456 974020 2897 59 157 7983
-7.7313509 0.10573029 -1.919208 547 1072360 3464 59 173 7976
-7.742187 0.15339613 -1.9221557 545 1170350 3456 59 162 7988
-7.7498212 0.20112377 -1.9243666 509 1266910 3240 59 145 7997
-7.7377839 0.24833114 -1.9216645 521 1365060 3296 59 142 7986
-7.7099605 0.29480746 -1.915032 494 1462850 3108 59 151 7959
-7.704133 0.34193784 -1.9140494 451 1561760 2846 59 155 7955
-7.7338381 0.39081401 -1.9221557 467 1658470 2965 59 151 7988
-7.7312946 0.43826059 -1.9221557 461 1756470 2932 59 170 7988
-7.7361994 0.48617619 -1.9241209 476 1855630 3015 59 166 7996
-7.736939 0.53390199 -1.9251035 432 1952800 2750 59 141 8000
-7.7499504 0.58259845 -1.9292794 460 2051710 2953 59 177 8017
-7.7471957 0.63021874 -1.9295251 416 2147390 2664 59 182 8018
-7.7402859 0.67748952 -1.9287882 427 2246150 2728 59 167 8015
-7.7118549 0.72271174 -1.922647 429 2343330 2724 59 147 7990
-7.7120981 0.77049851 -1.9238752 397 2442090 2516 59 160 7995
-7.7313242 0.82035899 -1.9300164 415 2539970 2652 59 187 8020
-7.7328882 0.86853868 -1.9317359 415 2637040 2656 59 197 8027
-7.7351146 0.91688246 -1.933701 424 2735040 2729 59 155 8035
-7.76301 0.96852356 -1.9422987 468 2832560 3039 59 164 8070
-7.7703772 1.0178995 -1.9457377 447 2931010 2917 59 181 8084
-7.7294121 1.0608174 -1.9368945 453 3028380 2913 59 148 8048
-7.717 1.1073986 -1.9354206 503 3127140 3236 59 189 8042
-7.718688 1.1560197 -1.9376314 512 3226420 3297 59 153 8051
-7.7229433 1.2051512 -1.9405792 442 3322980 2869 59 184 8063
-7.7211442 1.2534469 -1.9420531 447 3421680 2895 59 163 8069
-7.7142634 1.3009604 -1.9422987 463 3518750 3005 59 183 8070
-7.7128201 1.3494385 -1.9440182 423 3616800 2737 59 160 8077
-7.696764 1.3953556 -1.9420531 393 3713810 2549 59 178 8069
-7.6880574 1.4425558 -1.9420531 427 3811650 2763 59 189 8069
-7.6762066 1.4891481 -1.9413161 326 3909080 2112 59 168 8066
-7.666925 1.5362204 -1.9413161 196 4007520 1268 59 133 8066
-7.6478615 1.5812732 -1.9388597 182 4105560 1167 59 131 8056
-7.7318749 1.6481669 -1.9631786 552 4202470 3654 59 169 8155
-7.7225633 1.6957855 -1.9634242 522 4301180 3456 59 160 8156
-7.7148495 1.7437792 -1.9641612 521 4398210 3458 59 182 8159
-7.6973948 1.7895479 -1.9624417 471 4497640 3119 59 181 8152
-7.7220974 1.8453021 -1.9717762 538 4595220 3593 59 155 8190
-7.7303996 1.8974998 -1.9769348 570 4693410 3819 59 181 8211
-7.7195516 1.9451337 -1.9771804 555 4789970 3725 59 188 8212
-7.7168565 1.9948885 -1.9796369 538 4887700 3620 59 164 8222
-7.7241483 2.0474143 -1.9847955 560 4985320 3794 59 172 8243
-7.7254725 2.0985804 -1.9884801 556 5083170 3788 59 174 8258
-7.7096486 2.1451643 -1.9877431 536 5181310 3636 59 165 8255
-7.6926117 2.1913676 -1.9867606 541 5278690 3667 59 160 8251
-7.6967034 2.2436798 -1.9914279 540 5376020 3685 59 146 8270
-7.7162347 2.3008318 -2.0002711 518 5473080 3563 59 180 8306
-7.7103171 2.3506777 -2.0024819 516 5572150 3556 59 181 8315
-7.698525 2.398808 -2.0032189 486 5668760 3352 59 174 8318
-7.6892033 2.4477637 -2.0046928 537 5767010 3709 59 184 8324
-7.676805 2.4957967 -2.0054297 480 5863820 3323 59 202 8327
-7.6641068 2.5437694 -2.0061667 502 5962360 3471 59 199 8330
-7.6538634 2.592613 -2.0076404 459 6060920 3171 59 187 8336
-7.6488061 2.6433258 -2.0105882 476 6157930 3304 59 219 8348
-7.6708417 2.7037382 -2.0209053 531 6255260 3714 59 169 8390
-7.6431603 2.7468216 -2.0179577 500 6353250 3500 59 163 8378
-7.6452775 2.8006678 -2.0231161 509 6450630 3573 59 176 8399
-7.6515617 2.8563373 -2.0295029 501 6548060 3538 59 172 8425
-7.6338916 2.9032326 -2.0295029 492 6646920 3481 59 177 8425
-7.6213574 2.9521189 -2.0309768 502 6743990 3559 59 149 8431
-7.6337609 3.0109167 -2.0393288 516 6841470 3686 59 188 8465
-7.6313353 3.0641997 -2.0437503 556 6940430 3996 59 190 8483
-7.6249533 3.1160996 -2.0471895 527 7038420 3794 59 172 8497
-7.6182208 3.1680365 -2.0506284 509 7137130 3669 59 169 8511
-7.6031027 3.2166092 -2.0518568 524 7233790 3789 59 178 8516
-7.607265 3.2735436 -2.0584891 529 7331670 3848 59 192 8543
-7.6056857 3.3283184 -2.0636477 608 7429150 4445 59 231 8564
-7.574492 3.3701956 -2.0606999 545 7526580 3982 59 179 8552
-7.55897 3.4190047 -2.0621738 464 7623600 3378 59 195 8558
-7.5598688 3.4754415 -2.068315 535 7722050 3930 59 173 8583
-7.5744114 3.5385811 -2.0783865 531 7819070 3943 59 205 8624
-7.5499291 3.5837433 -2.0776496 559 7916800 4151 59 181 8621
-7.530417 3.6312642 -2.0783865 543 8015510 4027 59 184 8624
-7.5132179 3.6799595 -2.0798602 529 8113090 3914 59 169 8630
-7.5000443 3.7307384 -2.0825624 528 8212000 3923 59 188 8641
-7.4917216 3.7841158 -2.0867383 552 8309270 4119 59 179 8658
-7.4769878 3.8344355 -2.0891948 504 8407120 3782 59 182 8668
-7.4705167 3.8891921 -2.0941079 498 8504900 3739 59 192 8688
-7.4653683 3.9449189 -2.0995121 530 8603090 4002 59 166 8710
-7.4350424 3.9874449 -2.0977924 552 8700930 4161 59 183 8703
-7.4112873 4.0334535 -2.0980382 505 8799740 3813 59 194 8704
-7.4050684 4.0891595 -2.1034424 502 8896650 3809 59 200 8726
-7.4153595 4.1544151 -2.1137595 496 8995510 3787 59 158 8768
-7.3930998 4.2017522 -2.114742 465 9094420 3574 59 177 8772
-7.3864961 4.2581692 -2.1203918 537 9191230 4142 59 184 8795
-7.3602295 4.303412 -2.1203918 513 9290310 3956 59 182 8795
-7.3295164 4.3460207 -2.1191638 510 9387170 3928 59 182 8790
-7.3126812 4.3969049 -2.1221113 440 9484700 3404 59 190 8802
-7.297153 4.4487553 -2.1255505 330 9581730 2556 59 131 8816
-7.3043518 4.5148482 -2.1358676 337 9680220 2626 59 150 8858
-7.2855482 4.5652432 -2.1385696 354 9777600 2766 59 149 8869
-7.2696738 4.6176553 -2.1422544 401 9876260 3145 59 167 8884
-7.2664714 4.6784391 -2.1498694 473 9974080 3747 59 182 8915
-7.2449346 4.7277045 -2.1520803 476 10072440 3756 59 154 8924
-7.2295356 4.7811584 -2.1562562 381 10170990 3033 59 184 8941
-7.1984525 4.8243489 -2.1557648 312 10267750 2467 59 143 8939
-7.1639037 4.8651595 -2.1542909 184 10365490 1459 59 137 8933
-7.1411042 4.91397 -2.1565018 207 10462450 1647 59 125 8942
-7.1243372 4.9671178 -2.1606777 231 10560850 1835 59 151 8959
-7.0834317 5.003469 -2.1574843 304 10658070 2423 59 139 8946
-7.0817671 5.0677071 -2.1665733 355 10756320 2854 59 153 8983
-7.0701613 5.1252861 -2.1727145 357 10855030 2869 59 168 9008
-7.0526447 5.1788974 -2.1771359 513 10952300 4164 59 225 9026
-7.0448484 5.2400064 -2.184751 524 11049310 4281 59 242 9057
-7.0303721 5.2965479 -2.1904008 483 11146860 3976 59 200 9080
-7.0093012 5.3484054 -2.1940856 441 11244730 3632 59 213 9095
-6.9855571 5.3984246 -2.1970334 393 11342630 3245 59 194 9107
-6.9591722 5.4465623 -2.1992443 389 11441790 3211 59 175 9116
-6.9256215 5.4891601 -2.1992443 450 11539930 3711 59 171 9116
-6.8842502 5.5254846 -2.1967878 524 11637160 4330 59 203 9106
-6.8359232 5.5560064 -2.1921206 522 11735450 4285 59 234 9087
-6.7867327 5.5855279 -2.1872075 593 11832210 4858 59 235 9067
-6.7136068 5.594799 -2.1744339 640 11931240 5177 59 230 9015
-6.6576648 5.6177611 -2.1673102 701 12027800 5645 59 212 8986
-6.5884275 5.6289148 -2.1557648 713 12126760 5681 59 228 8939
-6.5105066 5.6318226 -2.1412718 650 12226020 5092 59 255 8880
-6.454679 5.6531448 -2.1341481 569 12323200 4432 59 262 8851
-6.4162436 5.6894283 -2.1329198 717 12421040 5587 59 235 8846
-6.3595715 5.7092657 -2.1255505 845 12519630 6542 59 251 8816
-6.2878323 5.7149324 -2.1130226 852 12618300 6526 59 287 8765
-6.1998568 5.7048402 -2.0948448 827 12715160 6223 59 360 8691
-6.1583519 5.7368283 -2.092634 820 12813620 6169 59 304 8682
-6.1159825 5.7678571 -2.0901775 825 12911390 6199 59 322 8672
-6.0405087 5.7671242 -2.0761757 854 13008620 6321 59 391 8615
-5.9924612 5.7919545 -2.071754 796 13105950 5874 59 377 8597
-5.9616599 5.8333597 -2.0734735 835 13203470 6159 59 348 8604
-5.9223113 5.8664193 -2.0722454 819 13302750 6049 59 334 8599
-5.8978415 5.9143152 -2.0764213 813 13399910 6004 59 369 8616
-5.8804903 5.9697266 -2.0832994 765 13497340 5701 59 338 8644
-5.8525391 6.0147271 -2.0864928 831 13596610 6211 59 365 8657
-5.8235846 6.0589104 -2.0894406 841 13694490 6302 59 290 8669
-5.7642708 6.0713325 -2.0813341 843 13793920 6269 59 390 8636
-5.7176247 6.0966892 -2.0778952 811 13891100 6011 59 390 8622
-5.6722026 6.1231246 -2.0749474 799 13988870 5914 59 368 8610
-5.6377974 6.1613884 -2.0761757 819 14087900 6069 59 368 8615
-5.608336 6.2052135 -2.0793691 785 14184710 5828 59 361 8628
-5.5811319 6.251801 -2.083545 797 14284440 5940 59 371 8645
-5.54459 6.2881093 -2.0842819 779 14381760 5809 59 371 8648
-5.5014458 6.3168955 -2.0825624 765 14480270 5696 59 359 8641
-5.4606857 6.3483286 -2.0818255 773 14578870 5751 59 372 8638
-5.4184918 6.3780217 -2.0805972 795 14675630 5901 59 383 8633
-5.3736467 6.4044662 -2.0783865 824 14773570 6103 59 386 8624
-5.3385787 6.4425421 -2.080106 779 14871970 5788 59 353 8631
-5.3026314 6.4796782 -2.0815799 754 14970940 5599 59 391 8637
-5.281054 6.534709 -2.0889492 793 15069290 5926 59 361 8667
-5.2481151 6.5760808 -2.091897 799 15166860 6010 59 368 8679
-5.2136669 6.6157718 -2.0943534 824 15265010 6198 59 340 8689
-5.1711893 6.6453428 -2.0936165 839 15362230 6321 59 364 8686
-5.1362238 6.6846337 -2.0960729 782 15459340 5898 59 353 8696
-5.089251 6.7083011 -2.0936165 784 15557090 5904 59 389 8686
-5.0479941 6.7394018 -2.0936165 783 15655080 5885 59 340 8686
-4.9967475 6.757 -2.0894406 770 15752810 5772 59 350 8669
-4.9689126 6.8063211 -2.095336 773 15849420 5828 59 332 8693
-4.9168534 6.8225269 -2.0909145 801 15948800 6005 59 351 8675
-4.8597245 6.8312426 -2.0842819 784 16046570 5855 59 348 8648
-4.800446 6.8363419 -2.0766668 824 16143900 6114 59 406 8617
-4.7716627 6.884788 -2.0825624 808 16241690 6014 59 408 8641
-4.7561498 6.9531384 -2.094599 809 16338450 6086 59 353 8690
-4.7052598 6.97014 -2.0909145 763 16437410 5738 59 409 8675
-4.6699281 7.0101733 -2.0943534 811 16534990 6107 59 350 8689
-4.6433358 7.0638046 -2.1019685 804 16631700 6082 59 369 8720
-4.6099296 7.107614 -2.1066358 810 16730780 6180 59 323 8739
-4.565186 7.1341333 -2.1061444 773 16829320 5887 59 324 8737
-4.5156326 7.1529942 -2.1034424 731 16926500 5538 59 298 8726
-4.4526949 7.1501236 -2.0943534 734 17024640 5511 59 350 8689
-4.4092464 7.1781363 -2.094599 709 17123190 5341 59 325 8690
-4.3621049 7.2000813 -2.0931251 730 17221080 5484 59 310 8684
-4.3108821 7.2150621 -2.0896862 708 17319320 5315 59 336 8670
-4.268991 7.245553 -2.0909145 697 17416700 5228 59 373 8675
-4.227375 7.2766395 -2.0923882 673 17515510 5064 59 337 8681
-4.1831284 7.3032823 -2.092634 669 17613970 5022 59 324 8682
-4.1449118 7.3406286 -2.0960729 704 17710560 5305 59 283 8696
-4.0960202 7.3591475 -2.0941079 695 17809370 5225 59 322 8688
-4.0601144 7.4011383 -2.0990207 711 17907830 5360 59 367 8708
-4.0220027 7.4395542 -2.102951 651 18005110 4934 59 317 8724
-3.9721763 7.4563932 -2.1007402 660 18103360 4992 59 317 8715
-3.9245474 7.4771924 -2.0997577 714 18201080 5411 59 324 8711
-3.8759224 7.4959664 -2.0982838 698 18298410 5269 59 308 8705
-3.8250151 7.5101061 -2.0955818 716 18397070 5389 59 352 8694
-3.777123 7.5299692 -2.094599 728 18495360 5466 59 352 8690
-3.7239785 7.5390983 -2.0906687 665 18592740 4987 59 365 8674
-3.6789215 7.5644212 -2.0914056 701 18690530 5257 59 321 8677
-3.6290884 7.5798583 -2.0894406 698 18789080 5222 59 345 8669
-3.5812709 7.5993528 -2.0887036 696 18886450 5198 59 320 8666
-3.5288637 7.6088729 -2.0852644 673 18983830 5031 59 333 8652
-3.4873431 7.6418462 -2.0884578 685 19082690 5129 59 334 8665
-3.4395936 7.6613317 -2.0879667 659 19179450 4930 59 341 8663
-3.39252 7.6822925 -2.0879667 683 19277650 5104 59 336 8663
-3.3673334 7.7536421 -2.1019685 672 19376010 5086 59 349 8720
-3.3311176 7.8009014 -2.1093378 678 19472820 5161 59 341 8750
-3.2663014 7.7809744 -2.0982838 652 19571980 4910 59 359 8705
-3.2218249 7.8089337 -2.1004946 636 19671250 4813 59 351 8714
-3.1727567 7.825861 -2.0997577 664 19768530 5008 59 338 8711
-3.1225257 7.8397779 -2.0982838 678 19866920 5107 59 341 8705
-3.0764825 7.8642063 -2.0997577 674 19965170 5099 59 341 8711
-3.0288661 7.8847446 -2.1002488 688 20061680 5208 59 347 8713
-2.9735863 7.8850417 -2.095336 672 20161010 5054 59 358 8693
-2.9211099 7.89223 -2.0923882 669 20259150 5020 59 321 8681
-2.8640234 7.8863163 -2.0860014 637 20356310 4749 59 345 8655
-2.8126516 7.8955231 -2.0837908 650 20453890 4844 59 350 8646
-2.766391 7.9190383 -2.0855103 686 20552450 5114 59 335 8653
-2.7174344 7.9349465 -2.0852644 667 20650540 4987 59 317 8652
-2.6794939 7.9836345 -2.0938621 701 20748380 5270 59 293 8687
-2.6404517 8.0303125 -2.1019685 736 20847140 5574 59 328 8720
-2.585779 8.0297546 -2.0975468 704 20945940 5308 59 334 8702
-2.5303378 8.0260553 -2.0923882 657 21042860 4927 59 377 8681
-2.4696081 8.0043802 -2.0825624 650 21141410 4839 59 335 8641
-2.413723 7.9971113 -2.0766668 674 21240530 4989 59 356 8617
-2.3635104 8.0080528 -2.0756843 632 21338110 4679 59 384 8613
-2.3240056 8.055933 -2.0845275 655 21435440 4892 59 356 8649
-2.2829494 8.0998964 -2.0923882 644 21534100 4835 59 389 8681
-2.2362945 8.1249666 -2.095336 675 21632290 5079 59 321 8693
-2.1911788 8.1563225 -2.1000032 645 21729000 4876 59 293 8712
-2.1393704 8.1630497 -2.0982838 681 21824530 5131 59 330 8705
-2.0815599 8.1459703 -2.0904231 638 21924060 4785 59 332 8673
-2.031538 8.1585884 -2.0904231 698 22023230 5227 59 355 8673
-1.983725 8.1803207 -2.0928795 626 22120290 4695 59 261 8683
-1.9386176 8.2140369 -2.0985293 698 22218740 5271 59 301 8706
-1.8829734 8.2031031 -2.092634 652 22317500 4887 59 307 8682
-1.8311266 8.20788 -2.0909145 660 22414830 4948 59 285 8675
-1.7794974 8.2132769 -2.0894406 725 22511640 5427 59 323 8669
-1.7256759 8.2079153 -2.0852644 649 22610350 4830 59 315 8652
-1.6797361 8.2401943 -2.0909145 655 22708090 4924 59 310 8675
-1.6334649 8.2722187 -2.0965643 650 22806280 4905 59 302 8698
-1.5814025 8.2754211 -2.0948448 647 22902280 4873 59 324 8691
-1.5302433 8.283062 -2.0943534 655 23000200 4920 59 270 8689
-1.4797313 8.2942038 -2.0948448 697 23097750 5252 59 310 8691
-1.4268373 8.2916641 -2.091897 688 23197220 5168 59 339 8679
-1.3760923 8.301219 -2.0921426 686 23294290 5148 59 312 8680
-1.3272697 8.3229074 -2.0955818 669 23392750 5036 59 309 8694
-1.2782326 8.3443089 -2.0990207 646 23490420 4870 59 317 8708
-1.2346225 8.4037838 -2.1122856 696 23588420 5315 59 320 8762
-1.1716856 8.3305702 -2.0916514 658 23685480 4949 59 326 8678
-1.1213233 8.3433666 -2.0931251 656 23782800 4933 59 328 8684
-1.0703549 8.3520126 -2.0936165 705 23882030 5312 59 326 8686
-1.015448 8.3285942 -2.0860014 687 23980370 5116 59 347 8655
-0.96755934 8.3625927 -2.0931251 646 24077330 4844 59 313 8684
-0.91897476 8.3934259 -2.0995121 692 24175130 5227 59 336 8710
-0.86645955 8.3892641 -2.0970554 654 24273570 4929 59 315 8700
-0.81571782 8.4021416 -2.0990207 611 24371980 4610 59 350 8708
-0.7628302 8.3925076 -2.095336 623 24470280 4702 59 313 8693
-0.71156615 8.3999281 -2.0960729 617 24566940 4635 59 340 8696
-0.66593909 8.4795132 -2.1152334 639 24666710 4896 59 351 8774
-0.61529851 8.5027761 -2.1201463 641 24765010 4922 59 286 8794
-0.56593645 8.5489502 -2.1309547 659 24863270 5137 59 272 8838
-0.51166648 8.5222654 -2.1233397 680 24962010 5255 59 290 8807
-0.45690933 8.4797516 -2.1117942 658 25059240 5045 59 291 8760
-0.40338796 8.4514112 -2.1039336 645 25158050 4893 59 312 8728
-0.35249236 8.4769716 -2.1098292 655 25255740 5010 59 329 8752
-0.3028475 8.5458183 -2.1267786 616 25353370 4772 59 302 8821
-0.25071895 8.5581741 -2.1294808 578 25451760 4496 59 307 8832
-0.19941923 8.6118832 -2.1427457 630 25548220 4941 59 255 8886
-0.14625876 8.5945292 -2.1380785 624 25645800 4896 59 260 8867
-0.093105897 8.5574617 -2.1284981 637 25744660 4943 59 319 8828
-0.040666968 8.5724125 -2.1321828 658 25842750 5118 59 281 8843
0.011900553 8.5472975 -2.1257961 605 25940700 4682 59 315 8817
0.064057522 8.5082903 -2.1159704 637 26038990 4883 59 362 8777
0.11645943 8.5222759 -2.1196549 673 26136270 5195 59 336 8792
0.16865346 8.5165548 -2.1184268 599 26235740 4605 59 298 8787
0.22158302 8.5415239 -2.1250591 639 26333840 4939 59 369 8814
0.27386472 8.536128 -2.1240766 684 26431560 5278 59 335 8810
0.32701179 8.5546284 -2.129235 706 26528280 5490 59 348 8831
0.37949586 8.5524607 -2.129235 686 26627090 5327 59 345 8831
0.43313721 8.5732069 -2.1351306 649 26723550 5058 59 336 8855
0.48671886 8.5878086 -2.1395524 653 26821940 5127 59 329 8873
0.53709716 8.5478964 -2.1302178 648 26919830 5036 59 329 8835
0.58853656 8.5299339 -2.126533 678 27018740 5245 59 325 8820
0.64231539 8.545495 -2.1314459 681 27117190 5291 59 336 8840
0.69285369 8.5182047 -2.1255505 635 27214560 4931 59 301 8816
0.74181515 8.4761314 -2.1159704 635 27312310 4882 59 362 8777
0.79299664 8.4627342 -2.1137595 686 27409830 5253 59 322 8768
0.8473146 8.4818239 -2.1199007 638 27505310 4919 59 316 8793
0.90230531 8.5044193 -2.1270244 637 27604490 4936 59 311 8822
0.95771319 8.5276222 -2.1343937 612 27702470 4783 59 303 8852
1.0083097 8.5071459 -2.1307089 632 27801130 4928 59 329 8837
1.0516167 8.4296169 -2.1125312 726 27899270 5560 59 344 8763
1.1009297 8.4047441 -2.1078639 711 27997060 5405 59 341 8744
1.1541917 8.4103155 -2.1110573 689 28094840 5262 59 332 8757
1.207701 8.4165087 -2.1144965 692 28192730 5302 59 321 8771
1.2614731 8.4233198 -2.118181 673 28289790 5187 59 338 8786
1.3152248 8.4288301 -2.1216202 677 28387690 5219 59 348 8800
1.3667631 8.4196453 -2.1213744 716 28485780 5522 59 317 8799
1.4187216 8.4130116 -2.1218657 703 28584440 5431 59 339 8801
1.4688134 8.3955545 -2.1196549 754 28682320 5807 59 330 8792
1.5171894 8.369215 -2.1152334 708 28779750 5445 59 299 8774
1.5679773 8.3568897 -2.1144965 700 28878670 5371 59 311 8771
1.6253134 8.3785162 -2.1226027 729 28976450 5634 59 368 8804
1.6768827 8.3693361 -2.1228483 689 29073580 5321 59 310 8805
1.7338934 8.3864193 -2.129972 669 29172840 5199 59 321 8834
1.7980443 8.4353514 -2.1454477 700 29269760 5506 59 284 8897
1.8437425 8.3967018 -2.138324 722 29368010 5661 59 246 8868
1.8879662 8.3530827 -2.129972 699 29464970 5423 59 345 8834
1.9365513 8.3300104 -2.1270244 728 29563310 5636 59 335 8822
2.0002379 8.3707705 -2.1407804 697 29661820 5478 59 336 8878
2.0612633 8.3978796 -2.1510975 709 29758950 5625 59 342 8920
2.0945232 8.3126936 -2.1321828 614 29856880 4768 59 376 8843
2.1593127 8.3531818 -2.1461847 742 29955340 5854 59 338 8900
2.2075472 8.3285313 -2.1432369 691 30052500 5445 59 319 8888
2.2586086 8.3148289 -2.1432369 726 30150760 5717 59 367 8888
2.3095849 8.3008137 -2.1432369 688 30248950 5421 59 326 8888
2.3649871 8.3023357 -2.147413 729 30346530 5767 59 306 8905
2.413444 8.2792921 -2.1452022 742 30444570 5848 59 349 8896
2.455339 8.234601 -2.1373415 691 30541900 5413 59 356 8864
2.5191009 8.2629604 -2.1488867 734 30639520 5795 59 363 8911
2.5743663 8.2621565 -2.152817 701 30737190 5563 59 332 8927
2.6197226 8.229578 -2.1483955 706 30834800 5588 59 347 8909
2.6674726 8.2050514 -2.1461847 676 30932940 5339 59 345 8900
2.7137992 8.176569 -2.1429913 723 31029530 5701 59 359 8887
2.7577007 8.1414013 -2.1380785 749 31126960 5879 59 378 8867
2.8110852 8.1344051 -2.1407804 787 31226490 6195 59 345 8878
2.8638432 8.1252317 -2.1429913 743 31324900 5834 59 383 8887
2.8864419 8.0317879 -2.1226027 648 31423340 4994 59 417 8804
2.9686701 8.1040401 -2.1469216 751 31521580 5927 59 379 8903
3.0342689 8.1283569 -2.1584671 796 31619940 6370 59 317 8950
3.0827084 8.1059618 -2.1574843 704 31717150 5610 59 351 8946
3.124687 8.0670071 -2.1520803 742 31816580 5886 59 335 8924
3.1744819 8.048584 -2.1523259 743 31913560 5886 59 354 8925
3.2270572 8.0370502 -2.1545367 749 32011900 5967 59 392 8934
3.2840099 8.035943 -2.1596951 771 32109700 6157 59 370 8955
3.3220921 7.9887886 -2.1523259 670 32206290 5325 59 400 8925
3.384264 7.9995022 -2.1609235 712 32301620 5699 59 358 8960
3.4321351 7.9759145 -2.1601865 786 32400840 6279 59 395 8957
3.483341 7.9600339 -2.1616604 731 32499350 5840 59 336 8963
3.5325112 7.9393964 -2.161906 770 32598050 6171 59 343 8964
3.5735712 7.9007897 -2.1572387 716 32696560 5705 59 349 8945
3.6353412 7.9077802 -2.165345 768 32796030 6176 59 317 8978
3.6874857 7.89323 -2.1675558 775 32894640 6226 59 351 8987
3.7383418 7.87571 -2.1690297 748 32991240 6025 59 350 8993
3.7962778 7.8727069 -2.1746795 763 33088880 6175 59 379 9016
3.8492017 7.8588414 -2.1773818 745 33186660 6044 59 379 9027
3.9059827 7.8524346 -2.1822946 728 33285420 5923 59 383 9047
3.9606452 7.8412995 -2.1859794 671 33383050 5495 59 328 9062
4.0047035 7.8090863 -2.1837685 747 33480470 6103 59 372 9053
4.0400128 7.7602906 -2.1768904 757 33578880 6140 59 359 9025
4.089817 7.7396412 -2.1781187 763 33676710 6198 59 328 9030
4.1395202 7.7186723 -2.1793468 777 33774550 6317 59 357 9035
4.1868029 7.6931276 -2.1793468 747 33871830 6080 59 365 9035
4.2325225 7.6647468 -2.1786098 772 33970430 6290 59 351 9032
4.2808943 7.6411695 -2.1793468 752 34068790 6128 59 389 9035
4.34446 7.6442571 -2.1879444 774 34165600 6340 59 382 9070
4.3917665 7.6182957 -2.1881902 770 34262110 6317 59 372 9071
4.4369612 7.5886946 -2.1874533 766 34360400 6275 59 342 9068
4.4933271 7.5780039 -2.1923661 732 34456290 6028 59 365 9088
4.541738 7.5536141 -2.1933486 747 34555600 6157 59 363 9092
4.5869918 7.5239487 -2.1928573 723 34653200 5968 59 311 9090
4.6386771 7.5047326 -2.1955595 715 34750920 5905 59 361 9101
4.6861815 7.4785933 -2.1962965 739 34849120 6097 59 389 9104
4.7319813 7.4496989 -2.1962965 737 34946740 6097 59 382 9104
4.7838988 7.4303045 -2.1992443 781 35044540 6459 59 328 9116
4.8177476 7.3829503 -2.19384 753 35143450 6208 59 379 9094
4.846384 7.3281841 -2.1862249 750 35241640 6140 59 405 9063
4.8826241 7.2854242 -2.1822946 771 35337290 6285 59 366 9047
4.9272346 7.2553282 -2.1822946 792 35436500 6457 59 360 9047
4.9952855 7.2592988 -2.1928573 807 35534190 6657 59 390 9090
5.0574718 7.2539592 -2.2007182 780 35632930 6462 59 400 9122
5.1253719 7.2560468 -2.2110353 782 35730680 6546 59 394 9164
5.1697979 7.2244611 -2.2110353 785 35828050 6571 59 417 9164
5.2236996 7.2059469 -2.2152112 779 35926810 6546 59 389 9181
5.2798634 7.1901684 -2.2203698 792 36026690 6683 59 310 9202
5.3204112 7.1529694 -2.2188959 790 36124690 6672 59 345 9196
5.3653674 7.121738 -2.2193871 814 36223030 6871 59 330 9198
5.4213114 7.104867 -2.2245457 773 36321020 6549 59 390 9219
5.4659896 7.0730028 -2.2250371 798 36419320 6759 59 363 9221
5.5021172 7.03017 -2.2220893 826 36517460 6989 59 333 9209
5.5409355 6.9909592 -2.2203698 800 36615300 6756 59 353 9202
5.5533924 6.9190273 -2.2080874 725 36713750 6058 59 418 9152
5.6110253 6.9036298 -2.2142286 779 36811640 6542 59 370 9177
5.6551275 6.8713169 -2.2149656 752 36910300 6326 59 387 9180
5.7151771 6.8580856 -2.2220893 821 37007930 6936 59 363 9209
5.7527747 6.8177023 -2.2203698 807 37105250 6821 59 388 9202
5.7995358 6.7881722 -2.2223349 782 37203910 6615 59 363 9210
5.8423462 6.7539253 -2.2228262 814 37301910 6889 59 377 9212
5.8855934 6.7201381 -2.2235632 808 37399440 6841 59 394 9215
5.9582262 6.7194405 -2.2355998 780 37497530 6669 59 340 9264
6.0025811 6.6863623 -2.2368281 786 37596390 6728 59 334 9269
6.03828 6.6436658 -2.2348628 760 37693870 6493 59 344 9261
6.088119 6.616478 -2.2383018 788 37791390 6762 59 345 9275
6.1444583 6.5960221 -2.2441974 722 37888870 6213 59 391 9299
6.2007751 6.5751228 -2.2500927 751 37987160 6501 59 338 9323
6.2510424 6.5474696 -2.2537775 744 38084740 6469 59 366 9338
6.2904258 6.5082936 -2.2535319 777 38183500 6747 59 352 9337
6.3254962 6.4647236 -2.2518125 766 38281090 6638 59 401 9330
6.358223 6.4189019 -2.2493558 794 38378060 6878 59 367 9320
6.4070973 6.3893514 -2.252795 749 38475730 6515 59 361 9334
6.4634442 6.3669262 -2.2589362 701 38573110 6113 59 362 9359
6.5280919 6.3521624 -2.2680249 822 38670800 7247 59 362 9396
6.5704393 6.3153462 -2.2692533 807 38769910 7123 59 346 9401
6.6104717 6.276247 -2.2697444 783 38867340 6895 59 358 9403
6.6898637 6.2740321 -2.2839921 763 38965330 6806 59 300 9461
6.7261014 6.2308893 -2.2832551 823 39062440 7345 59 338 9458
6.7484746 6.1751032 -2.2778509 772 39159620 6866 59 329 9436
6.8452029 6.1868834 -2.2979937 766 39257460 6913 59 332 9518
6.8938818 6.1544499 -2.3016784 682 39354680 6180 59 349 9533
6.9547796 6.1325521 -2.3095391 754 39451040 6872 59 322 9565
7.0346713 6.1266918 -2.3237865 739 39556030 6820 59 286 9623
7.1029944 6.1099653 -2.3341036 755 39646560 7020 59 273 9665
7.1514311 6.0756826 -2.3377883 690 39745880 6433 59 285 9680
7.2219896 6.0597291 -2.3488424 727 39843810 6855 59 246 9725
7.2433624 6.0023117 -2.343684 734 39941650 6880 59 281 9704
7.2733045 5.9522285 -2.3414731 692 40039850 6479 59 305 9695
7.2765193 5.8806758 -2.3306646 737 40137790 6859 59 294 9651
7.3011017 5.8268461 -2.3269799 811 40236450 7514 59 318 9636
7.39153 5.8251433 -2.3446665 682 40334530 6386 59 275 9708
7.4103045 5.7665815 -2.3392622 578 40431910 5386 59 222 9686
7.4824409 5.7493572 -2.3510532 647 40529080 6091 59 242 9734
7.5361104 5.7174006 -2.3569489 617 40627540 5847 59 228 9758
7.640871 5.723361 -2.3790569 628 40725170 6070 59 241 9848
7.7046809 5.6976981 -2.3881457 609 40823610 5922 59 220 9885
7.7614164 5.6663222 -2.3950238 578 40920790 5641 59 226 9913
7.8196287 5.6355972 -2.4023933 497 41018020 4898 59 174 9943
7.8674879 5.597065 -2.4065692 436 41117640 4309 59 184 9960
7.9080291 5.5531425 -2.4085343 419 41215220 4147 59 193 9968
7.9196472 5.4890518 -2.4016564 466 41312750 4587 59 197 9940
7.9395776 5.4310493 -2.3974802 517 41410320 5065 59 176 9923
7.9582915 5.3724666 -2.3930588 530 41509040 5170 59 235 9905
7.956419 5.3004217 -2.3824959 474 41606730 4581 59 223 9862
7.9458637 5.2232776 -2.3694768 392 41703640 3745 59 208 9809
7.9574327 5.1612349 -2.3633356 471 41801980 4494 59 176 9784
7.948946 5.0867062 -2.3512988 462 41901310 4354 59 177 9735
7.9611559 5.0259333 -2.345649 470 41999200 4426 59 203 9712
7.9852624 4.9728899 -2.343684 470 42096630 4419 59 199 9704
8.0057144 4.9177103 -2.3407362 479 42195270 4484 59 194 9692
8.0166702 4.8569407 -2.3350863 461 42292500 4295 59 180 9669
8.0238543 4.7942338 -2.3284538 431 42389930 3992 59 182 9642
8.0497799 4.7429414 -2.3274713 414 42487250 3830 59 184 9638
8.0787306 4.6934595 -2.3274713 440 42585750 4083 59 175 9638
8.0947599 4.6365728 -2.3237865 436 42683740 4024 59 167 9623
8.1044884 4.5763297 -2.3183823 448 42781390 4114 59 187 9601
8.1205587 4.5199142 -2.3149433 422 42879980 3853 59 198 9587
8.1345415 4.4625411 -2.311013 420 42978020 3843 59 174 9571
8.1396008 4.4005561 -2.3046262 419 43075400 3803 59 179 9545
8.1570387 4.3455153 -2.301924 432 43173390 3920 59 201 9534
8.1689577 4.2877231 -2.2977481 453 43270620 4088 59 191 9517
8.1873636 4.2335105 -2.2955372 441 43367730 3969 59 222 9508
8.208004 4.1805539 -2.2940633 463 43464440 4165 59 195 9502
8.1945124 4.1105499 -2.2830093 477 43562130 4243 59 182 9457
8.1908998 4.0460219 -2.2749031 483 43661200 4282 59 215 9424
8.2094698 3.9927189 -2.2731836 473 43758820 4165 59 157 9417
8.2486773 3.9493892 -2.2773595 479 43856300 4249 59 185 9434
8.2359285 3.8813424 -2.2670424 507 43955580 4466 59 194 9392
8.246398 3.8246157 -2.2633576 497 44051920 4355 59 188 9377
8.2511921 3.7654915 -2.2581992 453 44149000 3949 59 210 9356
8.2661829 3.7112184 -2.2559884 477 44247710 4143 59 197 9347
8.2568769 3.6463277 -2.2471452 495 44345430 4268 59 194 9311
8.2719831 3.5925059 -2.2451799 517 44443430 4450 59 212 9303
8.2769327 3.5344477 -2.2405126 505 44542040 4338 59 198 9284
8.2716513 3.4723363 -2.2331433 502 44639420 4285 59 192 9254
8.2775679 3.4152303 -2.2289674 535 44736330 4553 59 157 9237
8.284893 3.3589115 -2.2252827 523 44834470 4415 59 214 9222
8.3008442 3.3062191 -2.2240543 534 44930410 4529 59 213 9217
8.2984076 3.2463927 -2.2179132 519 45027560 4365 59 165 9192
8.2937393 3.1860259 -2.2112808 535 45125000 4480 59 186 9165
8.285923 3.1248121 -2.2039115 467 45223610 3891 59 194 9135
8.2967596 3.0708828 -2.2017007 485 45320840 4018 59 186 9126
8.3172684 3.0205789 -2.2021918 518 45418780 4302 59 184 9128
8.3027735 2.9577744 -2.1933486 467 45517120 3856 59 175 9092
8.3042936 2.9010179 -2.1889269 447 45614190 3675 59 181 9074
8.2889242 2.8386993 -2.1800838 468 45713210 3808 59 208 9038
8.3052673 2.7874775 -2.1798382 438 45810990 3563 59 191 9037
8.3084021 2.7319217 -2.1761534 456 45908020 3697 59 205 9022
8.3019419 2.6734602 -2.1700122 478 46006610 3864 59 193 8997
8.292304 2.6143064 -2.1631343 472 46103490 3776 59 188 8969
8.3026314 2.5616615 -2.1616604 526 46201110 4220 59 191 8963
8.3126259 2.5089881 -2.1601865 483 46299360 3871 59 179 8957
8.308341 2.4521711 -2.1550279 527 46396580 4197 59 153 8936
8.2971525 2.39362 -2.14815 501 46494410 3970 59 198 8908
8.3228788 2.3458214 -2.1510975 545 46593320 4331 59 192 8920
8.3044062 2.2857025 -2.1424999 520 46691980 4077 59 188 8885
8.3061047 2.2314339 -2.1393065 532 46788910 4174 59 194 8872
8.3168268 2.1796889 -2.1385696 520 46887350 4062 59 184 8869
8.3037481 2.1218944 -2.1316917 569 46985130 4425 59 211 8841
8.2836905 2.0627024 -2.1230941 569 47082670 4391 59 193 8806
8.2924223 2.0109217 -2.1221113 525 47180720 4047 59 186 8802
8.2998886 1.9588886 -2.1208832 532 47278740 4102 59 217 8797
8.3013592 1.905538 -2.118181 515 47377200 3971 59 182 8786
8.2788363 1.846964 -2.1093378 482 47474580 3669 59 199 8750
8.2672768 1.7912027 -2.1034424 477 47571970 3612 59 178 8726
8.2705231 1.7388456 -2.1014771 502 47668920 3805 59 160 8718
8.2848358 1.6888407 -2.1024597 511 47767530 3868 59 179 8722
8.2712679 1.6332771 -2.0963185 500 47865210 3771 59 165 8697
8.2392406 1.5744848 -2.0855103 274 47963870 2034 59 148 8653
8.2268229 1.5198475 -2.0798602 252 48062260 1860 59 150 8630
8.2560329 1.4729173 -2.0850189 491 48161170 3671 59 180 8651
8.2668257 1.4225606 -2.0855103 463 48258350 3441 59 157 8653
8.2734861 1.3714923 -2.0850189 482 48356160 3588 59 170 8651
8.2750454 1.3196319 -2.0832994 479 48454120 3567 59 179 8644
8.2638235 1.2658949 -2.0783865 497 48551590 3685 59 187 8624
8.2685575 1.2147422 -2.0776496 539 48647440 4001 59 199 8621
8.2691364 1.1630386 -2.0759299 515 48745530 3817 59 186 8614
8.2674704 1.1111153 -2.0737193 559 48842440 4133 59 214 8605
8.2693253 1.0597496 -2.0724909 514 48941470 3782 59 191 8600
8.2670116 1.0079333 -2.0702801 523 49039100 3832 59 207 8591
8.2663002 0.95640832 -2.0685606 538 49136370 3945 59 189 8584
8.2710495 0.90556365 -2.068315 522 49234100 3826 59 185 8583
8.2629519 0.85340083 -2.0648758 533 49332510 3894 59 194 8569
8.2612782 0.80202788 -2.0631564 556 49430650 4070 59 212 8562
8.2718363 0.75184959 -2.0646303 550 49527560 4032 59 197 8568
8.2647028 0.70009732 -2.0616825 548 49624790 4000 59 184 8556
8.2562809 0.64838499 -2.0584891 544 49723330 3950 59 194 8543
8.2514019 0.59708267 -2.0562782 570 49820760 4123 59 206 8534
8.2520084 0.54624939 -2.0555415 548 49920340 3974 59 217 8531
8.2571402 0.49572212 -2.0560327 549 50017370 3979 59 172 8533
8.2609949 0.44510019 -2.0562782 570 50114840 4124 59 201 8534
8.2490463 0.39370862 -2.0525937 570 50212990 4111 59 165 8519
8.2348423 0.34239969 -2.0484176 619 50309600 4463 59 186 8502
8.233882 0.29176193 -2.0476806 588 50407990 4235 59 196 8499
8.2238894 0.2408925 -2.044733 573 50505120 4123 59 190 8487
8.2213364 0.19033697 -2.0437503 559 50604990 4018 59 182 8483
8.2175035 0.13980527 -2.0425222 580 50702120 4151 59 167 8478
8.2085133 0.089274563 -2.0400658 577 50800070 4119 59 179 8468
8.2156925 0.038939256 -2.0417852 595 50899130 4269 59 190 8475
8.2118988 -0.011467005 -2.0408027 571 50995270 4085 59 190 8471
8.2019806 -0.061782047 -2.0383463 571 51093980 4076 59 185 8461
8.2024164 -0.11212044 -2.0385919 538 51191870 3835 59 164 8462
8.2044821 -0.1625047 -2.0393288 574 51289600 4103 59 172 8465
8.1975155 -0.21269314 -2.0378549 593 51388210 4219 59 153 8459
8.1844301 -0.26261631 -2.0349071 585 51484300 4162 59 190 8447
8.1729784 -0.31246075 -2.0324507 603 51583060 4272 59 212 8437
8.1612234 -0.3621746 -2.0299942 532 51680490 3766 59 187 8427
8.1346436 -0.41102371 -2.0238531 521 51777970 3647 59 157 8402
