# .PCD v0.7 - Point Cloud Data file format
VERSION 0.7
FIELDS x y z intensity t reflectivity ring ambient range
SIZE 4 4 4 4 4 2 1 2 4
TYPE F F F F U U U U U
COUNT 1 1 1 1 1 1 1 1 1
WIDTH 790
HEIGHT 1
VIEWPOINT 0 0 0 1 0 0 0
POINTS 790
DATA ascii
-19.814236 1.1145687 -1.7405558 122 1168310 4792 42 150 19925
-19.762291 1.2333344 -1.73654 158 1264600 6224 42 174 19880
-19.755344 1.3546385 -1.7366291 70 1362600 2716 42 147 19881
-19.752621 1.4762748 -1.7371646 60 1460180 2326 42 138 19887
-19.864307 1.6072448 -1.7480521 109 1558890 4308 42 160 20009
-19.902693 1.7333335 -1.752425 109 1655450 4334 42 146 20058
-19.986887 1.8643004 -1.7609922 75 1753220 3002 42 127 20154
-20.045441 1.9939011 -1.7673284 81 1852130 3260 42 149 20225
-20.052639 2.1189532 -1.7691132 62 1949110 2484 42 161 20245
-20.191694 2.259006 -1.7828565 86 2047920 3524 42 152 20399
-20.240759 2.3903325 -1.788568 89 2144680 3671 42 153 20463
-20.277107 2.5208714 -1.7932086 64 2242010 2634 42 162 20515
-20.366934 2.6590374 -1.8027575 73 2338870 3051 42 146 20622
-20.343328 2.7830114 -1.8021327 67 2437410 2787 42 163 20615
-20.470806 2.9285159 -1.8152514 71 2535160 3014 42 124 20762
-20.626814 3.0801015 -1.8310472 85 2632020 3668 42 155 20939
-20.648861 3.2130387 -1.8347954 82 2729860 3562 42 123 20981
-20.665136 3.345566 -1.8380973 76 2827190 3299 42 152 21018
-20.690384 3.4800661 -1.8422916 71 2925430 3089 42 159 21065
-20.75106 3.6213365 -1.849788 88 3022540 3881 42 142 21149
-20.788237 3.7594059 -1.8552318 67 3121050 2957 42 147 21210
-20.764778 3.8868892 -1.8552318 55 3220160 2425 42 127 21210
-20.834412 4.0323939 -1.863799 89 3316520 4009 42 194 21306
-20.887413 4.1757751 -1.8709383 86 3415020 3878 42 140 21386
-20.901392 4.3121099 -1.8745972 42 3511880 1871 42 144 21427
-20.977806 4.4622421 -1.8840569 99 3609720 4530 42 151 21533
-21.024946 4.6072912 -1.8909285 91 3706530 4217 42 195 21610
-21.022514 4.7421284 -1.8933381 99 3804110 4602 42 196 21637
-21.201622 4.9194298 -1.9125251 90 3901330 4259 42 208 21852
-21.171038 5.049428 -1.9125251 142 3999530 6744 42 203 21852
-20.964558 5.1363387 -1.8963723 257 4097470 12019 42 241 21671
-20.543377 5.166976 -1.8604078 259 4194180 11608 42 273 21268
-20.41581 5.2682939 -1.8515729 246 4292630 10999 42 294 21169
-20.411985 5.4011068 -1.8542501 227 4389450 10081 42 309 21199
-20.464016 5.5494504 -1.8621926 249 4488610 11159 42 319 21288
-20.587927 5.718894 -1.8769175 206 4585990 9451 42 304 21453
-20.616636 5.8633657 -1.8828968 238 4683930 10989 42 312 21520
-20.695988 6.0234332 -1.893695 206 4780380 9610 42 323 21641
-20.705414 6.1642332 -1.8980678 216 4877850 10089 42 293 21690
-20.736759 6.312336 -1.9045825 203 4975230 9527 42 327 21763
-20.903063 6.5033646 -1.9238588 213 5072880 10200 42 327 21979
-21.034575 6.68611 -1.9400116 173 5170800 8397 42 345 22160
-21.136202 6.8614864 -1.9534872 177 5267980 8724 42 315 22311
-21.245918 7.0414929 -1.9678551 174 5365010 8741 42 336 22472
-21.483477 7.2668233 -1.9944493 157 5461970 8075 42 376 22770
-21.671982 7.4790845 -2.0165813 167 5560730 8814 42 306 23018
-21.924448 7.7170773 -2.0449603 177 5657120 9552 42 298 23336
-22.107302 7.9342222 -2.0669136 145 5755110 8023 42 314 23582
-22.170448 8.1107836 -2.0776227 131 5851770 7307 42 339 23702
-22.260254 8.2988539 -2.0910091 176 5950190 9924 42 295 23852
-22.475212 8.5364246 -2.1165323 167 6048480 9696 42 297 24138
-22.642567 8.7593346 -2.1376827 135 6145290 7988 42 295 24375
-22.835825 8.9955673 -2.1615102 134 6242350 8068 42 245 24642
-22.763559 9.1288424 -2.1599038 109 6340240 6548 42 232 24624
-22.767057 9.2928104 -2.1657045 168 6437420 10176 42 237 24689
-22.614866 9.3929815 -2.1565127 151 6534580 9085 42 312 24586
-22.567816 9.5362196 -2.1575835 182 6633290 10926 42 279 24598
-22.507048 9.673727 -2.1574051 160 6730050 9548 42 249 24596
-22.420801 9.8000774 -2.1548171 129 6827330 7720 42 240 24567
-22.420319 9.9641609 -2.160707 90 6926040 5388 42 253 24633
-22.889748 10.341433 -2.2129135 69 7023870 4342 42 198 25218
-23.074778 10.595985 -2.2374551 77 7122330 4946 42 218 25493
-23.040016 10.751691 -2.2404892 68 7218840 4396 42 177 25527
-23.107708 10.956438 -2.2537863 83 7316510 5435 42 179 25676
-23.134266 11.143402 -2.2631569 73 7413740 4806 42 195 25781
-23.128082 11.315782 -2.2694037 61 7510970 4019 42 214 25851
-17.121271 8.5075293 -1.6754092 312 7607730 11439 42 175 19195
-17.064301 8.6101809 -1.674963 401 7705970 14666 42 200 19190
-17.03331 8.7260761 -1.677194 291 7802830 10684 42 187 19215
-23.182739 12.05643 -2.3036726 56 7900360 3810 42 189 26235
-23.301226 12.300276 -2.3232167 68 7999320 4724 42 173 26454
-23.287649 12.476413 -2.3295529 66 8096250 4588 42 207 26525
-23.27891 12.656176 -2.3365138 66 8194840 4633 42 176 26603
-23.176395 12.785303 -2.3340149 104 8291920 7306 42 179 26575
-23.093164 12.924838 -2.3335688 142 8389540 9938 42 256 26570
-22.958858 13.035312 -2.3279464 159 8487170 11096 42 238 26507
-22.751564 13.10287 -2.3148279 141 8585160 9696 42 282 26360
-22.835009 13.338174 -2.3318732 123 8682740 8572 42 277 26551
-22.887278 13.557732 -2.3458841 78 8781350 5468 42 271 26708
-23.013697 13.824075 -2.3678377 101 8878060 7242 42 267 26954
-23.175982 14.11579 -2.3938072 93 8976770 6805 42 268 27245
-23.06605 14.243601 -2.3913975 101 9075430 7391 42 257 27218
-23.039003 14.422915 -2.3978229 118 9172090 8707 42 240 27290
-22.210857 14.094915 -2.3193793 88 9270900 6050 42 146 26411
-22.159136 14.253564 -2.3231275 58 9367560 3981 42 128 26453
-22.368294 14.582906 -2.3548975 88 9464820 6257 42 224 26809
-22.680601 14.985623 -2.3980906 58 9561590 4261 42 207 27293
-22.151239 14.831919 -2.350971 65 9659950 4588 42 226 26765
-22.069706 14.974268 -2.3520417 67 9757160 4736 42 225 26777
-21.742672 14.948025 -2.3265185 41 9855570 2805 42 234 26491
-28.013912 19.513597 -3.0213566 52 9953190 5990 42 232 34277
-14.935101 10.540162 -1.6002674 31 10051290 1007 42 242 18353
-28.054302 20.057487 -3.0524127 36 10149630 4201 42 226 34625
-28.240463 20.453592 -3.0866818 30 10246090 3524 42 259 35009
-20.898882 15.332801 -2.2848425 31 10343670 2024 42 244 26024
-28.610901 21.261993 -3.1562905 59 10440480 7426 42 233 35789
-28.745689 21.637205 -3.1860974 39 10538690 4987 42 205 36123
-28.60684 21.80895 -3.1854727 31 10635650 3953 42 195 36116
-28.772852 22.215984 -3.2194738 39 10733640 5048 42 242 36497
-19.922838 15.578906 -2.2284417 33 10832190 2062 42 232 25392
-19.813599 15.690346 -2.2269247 36 10929210 2240 42 254 25375
-19.727053 15.819725 -2.2280848 55 11026070 3480 42 231 25388
-19.65049 15.957422 -2.2304943 40 11123350 2500 42 264 25415
-11.420466 9.3911486 -1.2872065 145 11221030 3178 42 208 14845
-11.342728 9.4444761 -1.2848862 449 11318660 9807 42 162 14819
-11.273903 9.5049086 -1.2836369 465 11417630 10117 42 167 14805
-11.222945 9.5803719 -1.2845293 427 11515560 9314 42 190 14815
-11.235538 9.7109261 -1.2930073 255 11612540 5646 42 232 14910
-29.542109 25.851147 -3.4797034 51 11710680 7766 42 231 39413
-29.438847 26.081463 -3.4863966 60 11807170 9229 42 209 39488
-29.40579 26.375994 -3.5017462 54 11905980 8312 42 248 39660
-29.542763 26.827778 -3.5379784 36 12002290 5615 42 233 40066
-29.60783 27.220209 -3.5660005 36 12100950 5717 42 223 40380
-29.543053 27.497047 -3.5785835 54 12200060 8733 42 209 40521
-29.370878 27.67507 -3.5782266 39 12296980 6277 42 203 40517
-29.222136 27.875391 -3.5809038 35 12395840 5580 42 237 40547
-29.519117 28.506662 -3.6392682 41 12492960 6736 42 267 41201
-17.439756 17.049799 -2.1476777 43 12591310 2509 42 249 24487
-17.332689 17.154385 -2.1474099 60 12687970 3513 42 277 24484
-29.428455 29.485077 -3.6949551 30 12786160 5064 42 236 41825
-29.658857 30.082848 -3.7475185 19 12883740 3208 42 250 42414
-29.541815 30.33419 -3.7562642 41 12980710 7217 42 238 42512
-29.574026 30.742424 -3.784554 34 13077870 6038 42 240 42829
-16.669338 17.54225 -2.1306324 32 13175050 1820 42 249 24296
-29.936186 31.893143 -3.8816493 23 13274060 4199 42 257 43917
-29.755505 32.093025 -3.8837018 20 13371040 3615 42 262 43940
-29.927334 32.678249 -3.9326956 21 13469530 3909 42 259 44489
-16.649414 18.405481 -2.186141 41 13568490 2467 42 262 24918
-21.71978 24.30867 -2.8832099 49 13664850 5151 42 220 32729
-29.921827 33.904636 -4.0140843 30 13764080 5960 42 240 45401
-30.1779 34.62067 -4.077446 17 13860940 3417 42 222 46111
-23.469687 27.260878 -3.1854727 38 13958520 4873 42 189 36116
-23.651676 27.815632 -3.2338417 29 14057280 3779 42 216 36658
-29.547705 35.184772 -4.0791416 17 14153890 3367 42 251 46130
-20.596048 24.833286 -2.8531356 75 14253370 7789 42 203 32392
-0 0 -0 8 14350480 0 42 191 0
-28.940788 35.779217 -4.0856566 14 14448770 2809 42 212 46203
-29.557411 37.003601 -4.2057762 18 14546980 3782 42 262 47549
-0 0 -0 13 14643520 0 42 282 0
-15.447995 19.834227 -2.2149661 22 14741220 1317 42 268 25241
-24.028309 31.244127 -3.4939821 16 14839410 2335 42 241 39573
-29.457167 38.793461 -4.3267884 25 14938120 5670 42 264 48905
-0 0 -0 9 15036210 0 42 275 0
-21.032682 28.416397 -3.1300533 19 15133530 2276 42 223 35495
-23.22257 31.780975 -3.4891632 19 15231420 2790 42 246 39519
-0 0 -0 13 15328280 0 42 255 0
-29.693584 41.701469 -4.5492687 16 15425360 3929 42 245 51398
-29.408512 41.842136 -4.5448065 32 15522780 8067 42 277 51348
-29.712698 42.831161 -4.6330667 22 15620510 5751 42 231 52337
-20.27973 29.62002 -3.1787794 32 15718040 4035 42 223 36041
-20.910639 30.947145 -3.3088942 18 15814350 2424 42 203 37499
-19.707508 29.555899 -3.1453137 15 15913560 1768 42 242 35666
-19.341837 29.396694 -3.1153283 34 16011050 4129 42 221 35330
-9.2116508 14.18944 -1.4781843 33 16108210 921 42 239 16985
-9.206069 14.373178 -1.4917492 41 16205740 1179 42 213 17137
-9.0421515 14.309833 -1.4790769 16 16302200 442 42 196 16995
-8.9821024 14.409842 -1.4838066 15 16401010 413 42 207 17048
-8.8825607 14.446866 -1.4819325 46 16498290 1315 42 188 17027
-0 0 -0 10 16594730 0 42 194 0
-0 0 -0 12 16693640 0 42 192 0
-0 0 -0 10 16792000 0 42 172 0
-0 0 -0 7 16888910 0 42 141 0
-30.276596 52.806351 -5.4163437 22 16986760 7705 42 158 61114
-0 0 -0 12 17085100 0 42 185 0
-17.888454 32.106804 -3.2555275 22 17182890 2888 42 206 36901
-17.743853 32.311993 -3.2653441 33 17280920 4423 42 197 37011
-17.536247 32.403618 -3.2636485 15 17378000 1910 42 235 36992
-28.570349 53.574886 -5.4026003 14 17476560 4961 42 190 60960
-18.167147 34.576412 -3.4620335 29 17574800 4288 42 244 39215
-27.906172 53.912609 -5.4017076 14 17671240 4927 42 200 60950
-27.573488 54.080162 -5.4014401 20 17769750 7207 42 184 60947
-0 0 -0 9 17868000 0 42 190 0
-0 0 -0 10 17965080 0 42 184 0
-0 0 -0 8 18061890 0 42 179 0
-26.358103 54.99115 -5.4263387 15 18160600 5086 42 165 61226
-25.813217 54.713158 -5.3828778 16 18257810 5705 42 177 60739
-0 0 -0 12 18356220 0 42 142 0
-0 0 -0 9 18454310 0 42 185 0
-0 0 -0 10 18551470 0 42 172 0
-0 0 -0 11 18649110 0 42 163 0
-0 0 -0 10 18747310 0 42 176 0
-0 0 -0 9 18844470 0 42 189 0
-21.903006 52.113861 -5.0274272 13 18941700 3995 42 184 56756
-0 0 -0 10 19040360 0 42 190 0
-23.214746 57.189655 -5.4926453 16 19137020 5581 42 169 61969
-23.099529 57.923119 -5.5497603 13 19234890 4555 42 159 62609
-20.786028 53.066006 -5.0688353 15 19333040 4730 42 179 57220
-20.446798 53.15815 -5.0655332 14 19429650 4115 42 163 57183
-0 0 -0 10 19528660 0 42 165 0
-0 0 -0 10 19627680 0 42 188 0
-0 0 -0 12 19724840 0 42 163 0
-0 0 -0 10 19822940 0 42 166 0
-19.570898 55.945229 -5.2729316 13 19920980 4118 42 158 59507
-0 0 -0 10 20017340 0 42 165 0
-6.0854402 18.106249 -1.673892 39 20116400 1387 42 148 19178
-4.4620743 13.551183 -1.2407115 116 20214300 2363 42 210 14324
-4.4112477 13.678787 -1.2501712 91 20311310 1874 42 232 14430
-5.7304397 18.149658 -1.6677344 92 20408680 3308 42 277 19109
-4.3101015 13.948857 -1.2705183 181 20507030 3851 42 205 14658
-4.2518125 14.065614 -1.2789963 224 20604870 4841 42 181 14753
-4.1818047 14.146836 -1.2841723 135 20702550 2939 42 233 14811
-4.279068 14.809499 -1.3436075 63 20801060 1481 42 251 15477
-4.2609148 15.093324 -1.3676136 73 20899720 1781 42 247 15746
-3.7655659 13.658745 -1.2318765 145 20996380 2908 42 262 14225
-3.4414871 12.789052 -1.14906 281 21094770 4957 42 190 13297
-3.3649735 12.817635 -1.149774 297 21193580 5223 42 226 13305
-3.3282549 13.002072 -1.164945 240 21290960 4328 42 190 13475
-3.3279724 13.341158 -1.1943949 55 21388140 1021 42 282 13805
-3.5141256 14.464679 -1.2961308 201 21486480 4454 42 179 14945
-3.2996981 13.954805 -1.2472261 167 21584470 3428 42 185 14397
-3.1883361 13.863162 -1.2369634 190 21681020 3827 42 156 14282
-3.1221185 13.967031 -1.2447274 123 21777730 2525 42 198 14369
-3.9569178 18.225758 -1.6334654 25 21875570 836 42 247 18725
-3.3340893 15.824863 -1.4114314 62 21974480 1613 42 208 16237
-3.2803898 16.057758 -1.4308861 105 22071290 2819 42 217 16455
-3.7716067 19.05761 -1.7030742 94 22169540 3541 42 220 19505
-3.2116325 16.767868 -1.4921062 48 22268150 1376 42 249 17141
-2.605371 14.069545 -1.2444596 84 22365270 1713 42 231 14366
-2.4567394 13.737206 -1.2127788 192 22461830 3734 42 206 14011
-2.4145696 13.996417 -1.235 133 22560230 2682 42 245 14260
-2.3190081 13.953 -1.2297348 71 22657700 1411 42 235 14201
-2.2361815 13.98467 -1.2313411 123 22755700 2466 42 235 14219
-2.1849668 14.223569 -1.2517775 67 22851490 1373 42 258 14448
-2.0976515 14.236708 -1.2517775 117 22949220 2422 42 226 14448
-2.0113704 14.2572 -1.2524915 108 23047880 2236 42 228 14456
-1.9580593 14.522952 -1.2754266 121 23145810 2599 42 224 14713
-1.7760432 13.812557 -1.2101908 120 23242520 2325 42 241 13982
-1.6833938 13.758933 -1.20439 178 23340730 3404 42 257 13917
-1.5784849 13.592897 -1.1885049 180 23438150 3372 42 270 13739
-1.4199529 12.919195 -1.126928 194 23535980 3291 42 199 13049
-1.3397306 12.918749 -1.1261249 265 23632840 4496 42 187 13040
-1.2556034 12.87716 -1.1216627 281 23729920 4733 42 175 12990
-1.1845394 12.971908 -1.129516 298 23828830 5088 42 173 13078
-1.0923313 12.831061 -1.1162189 310 23926920 5152 42 208 12929
-1.0004853 12.671705 -1.1013155 287 24023630 4642 42 230 12762
-0.93009126 12.77893 -1.1104182 199 24121260 3275 42 239 12864
-0.83888203 12.592592 -1.0931945 306 24219400 4887 42 181 12671
-0.76328307 12.62534 -1.0956932 275 24317710 4409 42 183 12699
-0.69223017 12.748137 -1.1063131 274 24415590 4458 42 192 12818
-0.61634421 12.800892 -1.1106859 225 24512100 3707 42 239 12867
-0.56756163 13.512966 -1.1742263 223 24611630 4076 42 226 13579
-0.49224323 13.728208 -1.1932348 158 24709620 2986 42 235 13792
-0.40749604 13.714046 -1.1917176 185 24807720 3494 42 215 13775
-0.32348153 13.722261 -1.1922531 128 24906260 2415 42 211 13781
-0.24016373 13.774777 -1.1968044 87 25003240 1647 42 220 13832
-0.1563489 13.838737 -1.2024267 259 25101730 4970 42 183 13895
-0.071933664 13.936047 -1.2110832 226 25199160 4392 42 189 13992
0.013684138 14.047779 -1.2210783 226 25296580 4460 42 207 14104
0.10251357 14.418933 -1.2543656 104 25394780 2162 42 214 14477
0.19492333 14.715813 -1.2810489 132 25491040 2865 42 203 14776
0.27632436 14.255265 -1.2399083 218 25588410 4434 42 185 14315
0.36371166 14.250315 -1.2396406 190 25687010 3876 42 203 14312
0.45215118 14.279671 -1.2424964 154 25784800 3148 42 227 14344
0.57229406 15.137562 -1.3196906 193 25882530 4407 42 171 15209
0.63521963 14.452156 -1.2585599 158 25980620 3305 42 268 14524
0.70868891 14.144584 -1.2313411 212 26077700 4271 42 199 14219
0.79518551 14.134997 -1.2308949 127 26176960 2539 42 267 14214
0.8444382 13.529429 -1.1769928 213 26274800 3913 42 202 13610
0.94787431 13.822097 -1.2037653 169 26372330 3234 42 215 13910
1.0650268 14.249073 -1.2426748 166 26470120 3366 42 282 14346
1.1748445 14.519252 -1.2675734 201 26567390 4258 42 224 14625
1.2648612 14.522685 -1.268555 151 26663650 3221 42 191 14636
1.3545018 14.5206 -1.2690904 230 26761890 4893 42 201 14642
1.437166 14.447594 -1.2632897 177 26859570 3719 42 227 14577
1.8613008 17.614037 -1.5493995 158 26958280 4974 42 198 17783
1.7382557 15.536496 -1.3631514 112 27056520 2739 42 211 15696
1.9905306 16.854939 -1.4830927 44 27153650 1252 42 216 17040
2.6857572 21.603544 -1.9129713 28 27251220 1294 42 221 21857
2.8365712 21.726902 -1.9256437 44 27348550 2089 42 211 21999
3.08025 22.516306 -1.9986436 40 27445110 2053 42 181 22817
3.1524847 22.036533 -1.9569676 38 27542790 1867 42 187 22350
3.1764424 21.272047 -1.8895006 42 27640580 1922 42 206 21594
3.2767394 21.058275 -1.87192 52 27739030 2329 42 245 21397
3.3941109 20.965015 -1.865316 172 27837020 7768 42 132 21323
3.5094705 20.865217 -1.8581767 189 27934600 8432 42 131 21243
3.6244185 20.768721 -1.8513943 138 28032170 6154 42 191 21167
3.7487717 20.729429 -1.8498772 98 28129820 4319 42 168 21150
3.2776027 17.509575 -1.5585022 49 28226780 1541 42 209 17885
3.9402304 20.358192 -1.8203381 141 28324450 6069 42 113 20819
4.058043 20.298471 -1.8171254 220 28422300 9468 42 94 20783
4.1865401 20.292698 -1.8189102 125 28520810 5385 42 180 20803
4.7077918 22.132254 -1.9898087 16 28618490 782 42 212 22718
4.8275151 22.02998 -1.9831154 21 28715710 1021 42 241 22643
4.8942213 21.696806 -1.955272 22 28814410 1040 42 248 22331
5.0324359 21.688683 -1.9573245 39 28912100 1899 42 229 22354
4.004108 16.788017 -1.5087944 30 29010240 862 42 264 17328
4.0890298 16.68961 -1.502012 34 29108020 979 42 243 17252
4.1617203 16.546362 -1.4911245 62 29204780 1791 42 226 17130
5.6575031 21.924162 -1.9911473 37 29302820 1855 42 242 22733
16.168108 61.10503 -5.6257944 18 29399580 7044 42 289 63461
16.666294 61.460327 -5.6680951 25 29497780 9769 42 242 63935
17.096674 61.549801 -5.6860328 26 29596090 10163 42 264 64136
17.523056 61.616184 -5.7020965 21 29693050 8177 42 257 64316
6.2107434 21.3396 -1.9537549 27 29790840 1289 42 244 22314
6.3273549 21.253359 -1.9492928 77 29889040 3778 42 206 22264
6.5089803 21.382788 -1.9650886 97 29986050 4855 42 184 22441
6.7169881 21.58972 -1.9882915 56 30084090 2840 42 217 22701
6.8487301 21.5462 -1.988113 33 30182080 1641 42 248 22699
7.0862875 21.828712 -2.018723 26 30279560 1347 42 304 23042
0 0 -0 13 30377340 0 42 303 0
7.0849204 20.945681 -1.9435813 29 30474470 1385 42 219 22200
7.2100582 20.892399 -1.9426888 111 30571940 5419 42 108 22190
7.3344784 20.837431 -1.9417073 44 30669370 2112 42 238 22179
7.537559 21.002028 -1.9616975 46 30766850 2261 42 224 22403
7.8253999 21.390337 -2.003195 62 30864790 3206 42 195 22868
7.3873048 19.815092 -1.857195 100 30961200 4465 42 224 21232
7.4641905 19.652071 -1.8459506 109 31058410 4819 42 209 21106
7.6087089 19.66814 -1.8519298 140 31157740 6212 42 164 21173
6.9396682 17.616621 -1.6588994 94 31255980 3344 42 168 19010
7.0454063 17.568161 -1.6583639 118 31354270 4243 42 174 19004
7.5990844 18.617355 -1.7641157 73 31452170 2943 42 207 20189
8.2037077 19.751438 -1.8787024 94 31550410 4305 42 189 21473
8.338315 19.732841 -1.8818258 118 31648760 5393 42 164 21508
7.8610363 18.289482 -1.7460889 114 31746750 4524 42 203 19987
8.5646811 19.594351 -1.8784347 140 31843410 6412 42 218 21470
8.745018 19.677046 -1.8917317 93 31941550 4299 42 232 21619
8.7483091 19.363422 -1.8662086 84 32039130 3771 42 247 21333
7.4683542 16.263569 -1.5659093 132 32135540 4227 42 240 17968
8.6677008 18.574066 -1.79892 135 32231950 5686 42 198 20579
8.7768126 18.510632 -1.7979383 67 32329680 2800 42 209 20568
7.613009 15.80479 -1.5342283 146 32427970 4504 42 210 17613
7.6437464 15.622684 -1.5207528 118 32526430 3566 42 235 17462
7.9912 16.082127 -1.5714422 91 32624780 2935 42 312 18030
30.949726 61.340076 -6.1184101 20 32724050 9204 42 306 68981
8.3205519 16.241699 -1.5975009 237 32822100 7862 42 205 18322
31.986889 61.507061 -6.1740971 19 32918810 8841 42 317 69605
8.2755976 15.676819 -1.5507381 21 33016180 624 42 264 17798
8.3603449 15.604674 -1.5485963 160 33113810 4983 42 262 17774
8.4621201 15.564459 -1.5497564 56 33211090 1737 42 241 17787
0 0 -0 11 33309780 0 42 231 0
0 0 -0 12 33406960 0 42 278 0
0 0 -0 12 33505150 0 42 288 0
0 0 -0 8 33602730 0 42 263 0
34.338428 58.788391 -6.0625448 16 33700370 6901 42 257 68355
0 0 -0 8 33797430 0 42 265 0
0 0 -0 11 33895790 0 42 234 0
0 0 -0 6 33993940 0 42 222 0
0 0 -0 7 34090530 0 42 233 0
0 0 -0 13 34186840 0 42 240 0
0 0 -0 10 34284890 0 42 256 0
0 0 -0 10 34381850 0 42 236 0
0 0 -0 7 34479640 0 42 280 0
0 0 -0 5 34577070 0 42 253 0
31.935009 47.695011 -5.1053352 17 34673260 5457 42 296 57629
0 0 -0 12 34772420 0 42 270 0
31.309256 45.541458 -4.9141788 20 34869960 5854 42 229 55487
31.602905 45.36974 -4.9164991 31 34967490 9238 42 233 55513
31.722763 44.951187 -4.8919578 21 35066200 5995 42 271 55238
31.875755 44.584732 -4.8731275 24 35164130 7034 42 319 55027
31.687765 43.751846 -4.8027158 24 35260890 6632 42 283 54238
31.760021 43.289974 -4.7730875 25 35358530 6836 42 285 53906
32.029202 43.09988 -4.7737122 27 35456110 7460 42 269 53913
32.363735 42.996441 -4.7842426 22 35554600 6216 42 312 54031
32.306908 42.377247 -4.7369442 23 35652150 6214 42 264 53501
32.536495 42.139587 -4.7325716 17 35749310 4431 42 287 53452
0 0 -0 14 35847820 0 42 283 0
0 0 -0 10 35947590 0 42 263 0
32.803787 40.906498 -4.6605535 19 36045270 4889 42 272 52645
33.051025 40.700581 -4.6601071 20 36143530 5386 42 295 52640
32.532166 39.563061 -4.5517673 25 36241160 6343 42 232 51426
14.287358 17.159204 -1.9630361 43 36339300 2111 42 229 22418
14.351932 17.023241 -1.9574138 146 36437250 7262 42 194 22355
14.337131 16.795471 -1.9409933 201 36534870 9762 42 162 22171
14.30054 16.545919 -1.9218955 143 36633120 6831 42 150 21957
14.371623 16.423382 -1.9177904 178 36730810 8441 42 136 21911
14.320874 16.164167 -1.897354 146 36829170 6806 42 142 21682
14.363922 16.01371 -1.8898576 155 36926680 7164 42 164 21598
14.362142 15.815407 -1.8765606 137 37023810 6239 42 158 21449
14.646985 15.931557 -1.9014591 131 37122300 6123 42 149 21728
14.864573 15.970433 -1.9172549 126 37220050 5978 42 163 21905
14.972531 15.889798 -1.9185935 187 37317420 8927 42 141 21920
15.090372 15.819251 -1.9212708 170 37415300 8099 42 103 21950
15.236969 15.777946 -1.9276962 123 37513910 5910 42 131 22022
15.268741 15.617921 -1.9193968 127 37611240 6070 42 204 21929
15.532434 15.693842 -1.9408149 51 37708560 2458 42 228 22169
14.575231 14.547044 -1.8074872 70 37805870 2959 42 204 20675
14.632298 14.425871 -1.8034714 116 37904030 4874 42 170 20630
14.738377 14.353189 -1.8057024 78 38001340 3273 42 149 20655
15.077394 14.504168 -1.8369372 99 38099860 4312 42 146 21005
15.48668 14.71601 -1.8765606 61 38197280 2747 42 148 21449
16.086483 15.099232 -1.9392084 184 38294090 8986 42 99 22151
16.199278 15.019204 -1.9417073 189 38391570 9207 42 96 22179
16.337404 14.961905 -1.9473294 132 38488750 6482 42 113 22242
16.973272 15.353823 -2.0131009 36 38586220 1848 42 231 22979
17.752693 15.861918 -2.0954711 16 38685130 850 42 244 23902
18.282816 16.134947 -2.1472316 55 38782410 3223 42 256 24482
32.984661 28.75182 -3.882988 32 38880140 5975 42 235 43932
18.515671 15.940565 -2.151515 60 38977120 3567 42 199 24530
33.155933 28.192614 -3.8619268 20 39074130 3594 42 251 43696
32.825661 27.56653 -3.8031163 21 39171750 3707 42 229 43037
21.374964 17.727762 -2.4505649 24 39268780 1796 42 219 27881
28.677765 23.489105 -3.2838173 56 39364870 7554 42 169 37218
33.856415 27.385468 -3.8640685 31 39462920 5687 42 259 43720
34.169338 27.293457 -3.8807569 28 39560030 5191 42 239 43907
27.180725 21.439226 -3.0641928 61 39659150 7221 42 141 34757
34.240818 26.6689 -3.8511286 46 39756980 8487 42 265 43575
34.343807 26.412153 -3.844346 43 39854580 7933 42 239 43499
34.529018 26.218996 -3.8470235 34 39952500 6232 42 243 43529
34.619915 25.954657 -3.8392594 38 40050250 6995 42 223 43442
34.818546 25.771372 -3.8437214 41 40148740 7577 42 224 43492
34.83609 25.454996 -3.8281934 51 40246530 9415 42 210 43318
35.104713 25.322344 -3.8406873 26 40343710 4771 42 200 43458
23.365181 16.637058 -2.5323999 46 40440670 3721 42 245 28798
16.642292 11.696739 -1.7849983 319 40538960 13219 42 122 20423
16.696562 11.582481 -1.7831242 269 40636390 11118 42 103 20402
16.75499 11.471375 -1.7817856 101 40734580 4156 42 232 20387
34.716171 23.457367 -3.7164624 27 40831560 4591 42 237 42066
16.004498 10.67145 -1.6859397 41 40928570 1479 42 271 19313
35.023048 23.043814 -3.7187827 41 41028000 7087 42 230 42092
34.767803 22.571407 -3.676482 34 41125430 5697 42 243 41618
34.633904 22.183594 -3.6475675 30 41222700 4944 42 231 41294
33.417973 21.116711 -3.5043342 27 41320130 4067 42 251 39689
34.696438 21.627825 -3.6257033 31 41418520 5016 42 257 41049
32.871101 20.210993 -3.419822 37 41516050 5439 42 318 38742
33.256802 20.167992 -3.4473085 31 41612760 4532 42 263 39050
32.439648 19.401194 -3.3491423 51 41710910 7224 42 212 37950
32.729664 19.302979 -3.3669908 53 41810080 7594 42 210 38150
32.887959 19.125322 -3.3711851 46 41907660 6628 42 181 38197
33.165405 19.015314 -3.3877842 44 42004940 6351 42 218 38383
33.238968 18.787441 -3.3834114 44 42103280 6374 42 187 38334
24.879965 13.861917 -2.5142837 46 42200360 3641 42 170 28595
24.825739 13.632767 -2.5000942 100 42297520 8030 42 80 28436
33.88311 18.336937 -3.4143784 43 42394590 6222 42 163 38681
33.994106 18.12822 -3.414289 53 42492940 7804 42 212 38680
34.095882 17.914661 -3.4133966 40 42590680 5884 42 190 38670
22.563793 11.679259 -2.238883 64 42688110 4096 42 236 25509
34.088661 17.380442 -3.3908184 69 42786600 10014 42 247 38417
33.879574 17.012724 -3.3592267 72 42884280 10251 42 259 38063
33.956539 16.791277 -3.3565495 65 42981460 9261 42 228 38033
34.077736 16.591764 -3.3584235 65 43079200 9207 42 279 38054
34.340569 16.459846 -3.3744872 72 43176210 10374 42 234 38234
34.445419 16.250952 -3.3749332 39 43273170 5551 42 235 38239
28.344595 13.160577 -2.7624657 121 43369630 11818 42 109 31376
28.567045 13.051394 -2.7764766 56 43467110 5453 42 133 31533
34.58609 15.54557 -3.3599408 25 43565920 3519 42 198 38071
34.497726 15.252108 -3.3420031 19 43663400 2634 42 188 37870
34.36779 14.94324 -3.3202281 22 43760570 3039 42 177 37626
34.237206 14.637328 -3.2986314 22 43859630 2939 42 227 37384
30.426754 12.787977 -2.9196208 24 43955830 2549 42 206 33137
18.76755 7.7524967 -1.7817856 227 44052540 9343 42 138 20387
19.129463 7.7649412 -1.8122171 268 44151150 11469 42 122 20728
19.261862 7.6813626 -1.8204274 125 44248570 5383 42 209 20820
18.969204 7.4300728 -1.7877648 221 44346320 9200 42 126 20454
19.003281 7.3092494 -1.7866939 137 44444710 5698 42 190 20442
28.878139 10.904646 -2.7281969 68 44541890 6462 42 199 30992
29.156507 10.80582 -2.7484546 53 44638600 5055 42 246 31219
19.702774 7.1648459 -1.8408638 132 44736480 5814 42 205 21049
24.838411 8.8602991 -2.3252692 62 44833550 4291 42 206 26477
24.906412 8.7126598 -2.3266079 144 44929180 10037 42 113 26492
24.965055 8.5616121 -2.3271432 127 45026460 8836 42 134 26498
28.336603 9.5239868 -2.640918 48 45124800 4248 42 213 30014
30.429434 10.020033 -2.8328776 32 45221830 3221 42 215 32165
29.819208 9.6166859 -2.7696943 56 45319460 5458 42 212 31457
28.727459 9.070365 -2.6616223 74 45417600 6633 42 172 30246
28.803509 8.9003954 -2.6635857 53 45514460 4799 42 186 30268
28.778446 8.6995707 -2.6561785 89 45613220 8008 42 128 30185
28.690878 8.4813185 -2.64306 96 45710810 8544 42 151 30038
28.740463 8.3045616 -2.6428814 80 45807570 7108 42 139 30036
29.023804 8.1938181 -2.6645672 74 45905970 6723 42 193 30279
28.865173 7.9581299 -2.6452017 64 46002630 5706 42 214 30062
29.096201 7.8300457 -2.6621578 65 46100050 5901 42 175 30252
29.458715 7.7340751 -2.6913397 97 46198050 9019 42 178 30579
29.443863 7.5373654 -2.6856284 85 46295010 7860 42 183 30515
29.333002 7.317503 -2.6711712 85 46392690 7770 42 191 30353
28.113335 6.8302698 -2.554621 164 46491350 13731 42 145 29047
28.111097 6.6473269 -2.5506053 169 46589760 14118 42 132 29002
28.475557 6.549284 -2.5804121 90 46686520 7664 42 225 29336
28.506458 6.3724823 -2.5796089 73 46784710 6197 42 225 29327
28.545023 6.1974497 -2.5796089 96 46881050 8188 42 208 29327
28.731628 6.0536036 -2.5932629 96 46979560 8262 42 223 29480
29.05806 5.9364085 -2.6197677 94 47077440 8256 42 217 29777
29.070488 5.7533588 -2.617626 78 47175240 6823 42 222 29753
29.102308 5.5743155 -2.6173582 78 47273430 6818 42 226 29750
28.777519 5.3292589 -2.5846956 72 47370610 6143 42 214 29384
28.814579 5.1534595 -2.5851419 82 47467880 7003 42 221 29389
28.534519 4.9228783 -2.5568521 103 47565860 8618 42 234 29072
28.569101 4.7485175 -2.5572984 74 47662990 6147 42 264 29077
28.117746 4.496376 -2.5137482 64 47760410 5124 42 265 28589
27.734287 4.2606936 -2.4765344 88 47858810 6911 42 221 28172
27.582541 4.0643024 -2.4604709 116 47957000 9004 42 240 27992
27.364346 3.8607502 -2.4385173 109 48055760 8296 42 258 27746
27.562231 3.716332 -2.454313 135 48152690 10451 42 226 27923
28.026094 3.6039314 -2.4942043 143 48250370 11455 42 193 28370
28.068443 3.4344392 -2.4960783 95 48347940 7601 42 195 28391
27.949488 3.2459476 -2.4834952 79 48445220 6262 42 176 28250
27.893635 3.0661199 -2.4767129 72 48540910 5666 42 186 28174
27.745487 2.8776462 -2.4617202 66 48638690 5128 42 186 28006
27.675386 2.6988411 -2.453867 58 48735500 4407 42 168 27918
27.637863 2.5240853 -2.4490478 61 48834260 4629 42 159 27864
27.469233 2.3388209 -2.432538 54 48931690 4029 42 163 27679
27.461222 2.1685038 -2.4305747 36 49028770 2663 42 136 27657
27.24156 1.9830406 -2.409692 47 49126240 3428 42 163 27423
27.112095 1.806448 -2.3970199 53 49224440 3850 42 146 27281
27.141558 1.6411997 -2.3987153 47 49322380 3393 42 170 27300
27.064592 1.4699311 -2.3909514 59 49419090 4272 42 152 27213
26.920889 1.2965062 -2.3772974 57 49516050 4136 42 174 27060
26.87261 1.1289564 -2.3722997 70 49614400 5008 42 152 27004
26.771532 0.96019125 -2.3626616 55 49712860 3881 42 155 26896
26.692295 0.79338998 -2.3550761 51 49810950 3566 42 160 26811
26.626961 0.62794971 -2.348829 63 49907760 4422 42 133 26741
26.576536 0.46361926 -2.3440101 48 50004990 3312 42 172 26687
26.581867 0.3005738 -2.3442779 53 50103010 3683 42 149 26690
26.349152 0.13625208 -2.3233058 60 50199270 4103 42 158 26455
26.321604 -0.025399225 -2.3208072 183 50297520 12714 42 225 26427
26.275137 -0.18658021 -2.3167019 109 50394430 7513 42 236 26381
26.153988 -0.34621713 -2.3059928 58 50494110 3902 42 163 26261
26.106558 -0.50582069 -2.3019772 80 50590980 5402 42 161 26216
26.071102 -0.66518539 -2.2991214 74 50688660 4976 42 164 26184
26.024717 -0.82381904 -2.2953732 88 50787520 5936 42 132 26142
26.004244 -0.98292404 -2.2940345 69 50883510 4673 42 178 26127
25.961901 -1.1408908 -2.2908218 65 50981970 4328 42 163 26091
25.952423 -1.3000689 -2.2906435 59 51079600 3972 42 189 26089
25.896223 -1.4566011 -2.2863598 76 51177130 5063 42 154 26041
25.863935 -1.6140434 -2.2843072 54 51275470 3607 42 197 26018
25.831684 -1.7712123 -2.2823439 72 51371420 4775 42 155 25996
25.791525 -1.927527 -2.2797558 82 51469980 5432 42 166 25967
25.737516 -2.0823715 -2.2760077 69 51567150 4549 42 151 25925
25.732193 -2.2409458 -2.2767215 57 51664410 3797 42 178 25933
25.719942 -2.3989785 -2.2769001 66 51761440 4342 42 166 25935
25.688879 -2.5551705 -2.2754722 66 51858400 4398 42 176 25919
25.654888 -2.7108629 -2.2738659 70 51956030 4601 42 163 25901
25.566504 -2.8602548 -2.2674403 59 52053520 3848 42 152 25829
25.497038 -3.0110006 -2.2627997 63 52150060 4096 42 156 25777
25.469187 -3.166285 -2.2619967 58 52248310 3758 42 162 25768
25.447304 -3.3222435 -2.2618182 179 52347340 11749 42 232 25766
25.412624 -3.476433 -2.2605689 109 52444110 7174 42 210 25752
25.270527 -3.6150897 -2.2496812 66 52541520 4244 42 161 25630
25.290228 -3.7764034 -2.2535186 69 52638800 4507 42 187 25673
25.245913 -3.9282947 -2.2516446 80 52736380 5228 42 179 25652
25.222317 -4.0832858 -2.2517338 67 52835750 4318 42 160 25653
25.160446 -4.2318583 -2.2484319 73 52932050 4756 42 176 25616
25.16148 -4.390954 -2.2509305 70 53029940 4557 42 197 25644
25.054674 -4.5309033 -2.2437022 72 53126700 4613 42 163 25563
24.947102 -4.6697078 -2.2364736 93 53225050 6005 42 175 25482
24.886686 -4.8166366 -2.2336178 73 53323090 4641 42 155 25450
24.904522 -4.9788146 -2.2379906 82 53419900 5240 42 163 25499
24.908621 -5.1387768 -2.2412033 66 53518810 4248 42 212 25535
24.937023 -5.3043637 -2.2467363 57 53616040 3695 42 184 25597
24.924437 -5.4617515 -2.2486103 67 53713310 4345 42 206 25618
24.512503 -5.5293312 -2.2138953 84 53810890 5306 42 188 25229
23.80283 -5.5229549 -2.1517828 99 53909400 5913 42 202 24533
23.070929 -5.5025387 -2.0875287 186 54006610 10482 42 246 23813
22.665251 -5.5529871 -2.0532596 162 54104410 8819 42 268 23429
22.32938 -5.6161585 -2.0254161 190 54202080 10078 42 277 23117
21.81904 -5.6303778 -1.9814199 191 54299460 9666 42 248 22624
21.496183 -5.6879754 -1.9547366 203 54397450 10003 42 265 22325
21.172489 -5.7415652 -1.927964 215 54494630 10324 42 251 22025
20.856636 -5.7935324 -1.9019053 192 54593590 8968 42 246 21733
20.614719 -5.8628206 -1.8827183 238 54690700 10919 42 251 21518
20.401436 -5.9377103 -1.8662086 246 54788030 11096 42 251 21333
20.108784 -5.986618 -1.8422916 233 54884940 10243 42 251 21065
19.807735 -6.0295506 -1.8175716 225 54983250 9675 42 242 20788
19.519289 -6.0728636 -1.7940117 228 55080680 9470 42 250 20524
19.242456 -6.116487 -1.7715228 246 55177540 10031 42 219 20272
18.978149 -6.160943 -1.750194 232 55274860 9223 42 250 20033
18.713083 -6.202075 -1.7287759 261 55371620 10145 42 237 19793
18.421818 -6.2312531 -1.704859 245 55469400 9302 42 230 19525
18.198696 -6.2804875 -1.6873676 292 55567040 10867 42 247 19329
17.894875 -6.2987819 -1.6622014 279 55666200 10083 42 240 19047
17.631836 -6.3280549 -1.6408725 287 55762870 10089 42 207 18808
17.380342 -6.3584461 -1.6206145 238 55861730 8146 42 235 18581
17.131016 -6.3866887 -1.6005352 274 55958440 9123 42 260 18356
16.742338 -6.3590674 -1.5670694 246 56055200 7881 42 257 17981
16.306351 -6.3082361 -1.5289631 279 56153710 8556 42 269 17554
16.095898 -6.3406391 -1.5124533 286 56250570 8526 42 275 17369
15.870875 -6.364768 -1.4945157 302 56349330 8883 42 302 17168
15.586229 -6.3619123 -1.4707773 269 56445620 7629 42 342 16902
15.016159 -6.2369938 -1.4192847 328 56544180 8727 42 293 16325
15.195046 -6.4208918 -1.4404351 328 56642280 8978 42 307 16562
14.779268 -6.3523622 -1.4037566 239 56740370 6183 42 344 16151
14.553834 -6.3615508 -1.3855512 343 56837430 8679 42 315 15947
14.402575 -6.400979 -1.3745744 304 56935220 7584 42 361 15824
14.514609 -6.5577126 -1.3894778 337 57032330 8577 42 296 15991
14.260485 -6.5485601 -1.3684168 345 57129710 8543 42 328 15755
14.079233 -6.5702338 -1.354495 330 57227850 7970 42 282 15599
13.81186 -6.5489683 -1.3320061 310 57324980 7240 42 300 15347
13.612587 -6.5570893 -1.3162102 356 57423840 8153 42 314 15170
13.550626 -6.6299858 -1.3140684 353 57520920 8082 42 307 15146
13.073517 -6.4962807 -1.270429 319 57618600 6801 42 391 14657
12.92937 -6.5238819 -1.2599877 389 57715510 8201 42 359 14540
12.740171 -6.5268011 -1.2449951 338 57813920 6960 42 354 14372
12.71579 -6.6131225 -1.2466015 355 57910930 7290 42 341 14390
12.509378 -6.6036081 -1.2298239 330 58008450 6630 42 378 14202
12.459844 -6.6755366 -1.2289315 448 58106350 8972 42 290 14192
12.082629 -6.5691819 -1.1946627 338 58204290 6414 42 414 13808
11.908661 -6.5695887 -1.1810086 525 58302940 9774 42 327 13655
11.898546 -6.6595602 -1.1841321 484 58399700 9014 42 349 13690
11.863523 -6.7358856 -1.1847568 392 58497640 7320 42 326 13697
11.799528 -6.7956281 -1.1824365 392 58594720 7287 42 358 13671
11.498734 -6.7166934 -1.1555747 463 58693680 8218 42 380 13370
11.240498 -6.6586943 -1.1329964 435 58789970 7443 42 391 13117
11.351409 -6.8188295 -1.1488816 449 58888430 7920 42 342 13295
11.258316 -6.8572664 -1.143527 493 58986360 8604 42 317 13235
11.065181 -6.8330688 -1.1276419 465 59084150 7895 42 330 13057
11.019669 -6.8987207 -1.127285 493 59181830 8367 42 338 13053
10.827438 -6.8712139 -1.1113999 504 59277720 8320 42 358 12875
10.831146 -6.9671555 -1.1163082 506 59375870 8443 42 343 12930
10.737296 -7.0003023 -1.1108644 492 59473860 8099 42 335 12869
10.635971 -7.0276194 -1.1046175 596 59571950 9723 42 281 12799
10.32781 -6.915422 -1.0760601 502 59669800 7765 42 384 12479
10.288481 -6.9808989 -1.076417 524 59767770 8113 42 386 12483
10.224934 -7.0297899 -1.074186 467 59865050 7214 42 361 12458
9.9609413 -6.9386902 -1.0500907 534 59962630 7895 42 403 12188
9.9963007 -7.0548105 -1.0586579 547 60060670 8225 42 331 12284
9.9528255 -7.1160135 -1.0586579 599 60158150 8991 42 366 12284
9.863801 -7.1442323 -1.0536603 556 60255940 8287 42 320 12228
9.6631813 -7.0897326 -1.0362581 573 60352340 8272 42 308 12033
9.5395546 -7.0894828 -1.027334 541 60451000 7696 42 289 11933
9.4640436 -7.1239238 -1.0237643 594 60548640 8388 42 337 11893
9.3742132 -7.1468368 -1.0185882 555 60646370 7762 42 326 11835
9.3766975 -7.2401347 -1.0238535 473 60743440 6648 42 347 11894
9.1430044 -7.149673 -1.0023462 484 60840920 6551 42 407 11653
9.1075516 -7.2124405 -1.0033278 519 60939930 7009 42 322 11664
9.0413685 -7.2507405 -1.0008291 592 61037260 7986 42 363 11636
8.9920702 -7.3023133 -1.0002936 522 61135300 7007 42 336 11630
8.8755474 -7.2985187 -0.99199408 523 61232780 6937 42 318 11537
8.7708941 -7.3031311 -0.98503321 557 61330660 7277 42 330 11459
8.7327709 -7.3625889 -0.98583639 586 61427530 7695 42 325 11468
8.5078917 -7.2627773 -0.9646861 480 61526030 6018 42 451 11231
8.6229248 -7.4529166 -0.98360538 613 61622490 7989 42 333 11443
8.5515471 -7.4833851 -0.98057115 569 61719910 7354 42 352 11409
8.3720207 -7.4174886 -0.96459681 539 61818580 6769 42 372 11230
8.2803812 -7.4274859 -0.95906383 576 61915790 7145 42 362 11168
8.2302265 -7.4741364 -0.9585284 627 62014080 7784 42 376 11162
8.1512156 -7.4941611 -0.95451248 530 62110590 6532 42 390 11117
8.0613337 -7.5033197 -0.94915795 571 62208780 6943 42 364 11057
7.9535255 -7.4945836 -0.94157237 556 62305040 6668 42 360 10972
7.9787393 -7.6113043 -0.95040733 573 62401650 7002 42 309 11071
7.8881826 -7.6179128 -0.94496357 597 62499800 7226 42 337 11010
7.8056808 -7.6313567 -0.94050151 562 62597430 6713 42 360 10960
7.7233124 -7.6440768 -0.93603939 527 62695250 6236 42 356 10910
7.5024714 -7.5171976 -0.91399664 532 62793350 6009 42 397 10663
7.4072566 -7.513442 -0.90774971 538 62890890 6024 42 366 10593
7.4777603 -7.6786251 -0.92274237 562 62989700 6473 42 351 10761
7.3676672 -7.6590447 -0.91462129 570 63087060 6467 42 335 10670
7.2656455 -7.6463466 -0.90748197 661 63185520 7402 42 342 10590
7.1333842 -7.6000075 -0.89632672 593 63283100 6463 42 323 10465
7.1258941 -7.6859961 -0.90150273 561 63380560 6191 42 331 10523
7.0638003 -7.7134156 -0.89953941 530 63478000 5832 42 358 10501
6.9675622 -7.702693 -0.89302474 651 63576050 7049 42 316 10428
6.9268045 -7.7527275 -0.8939172 590 63675520 6405 42 354 10438
6.8428559 -7.7540107 -0.88900888 626 63773580 6706 42 338 10383
6.7512999 -7.7455478 -0.88302964 581 63871760 6160 42 370 10316
6.7075462 -7.7913561 -0.88356513 554 63969290 5872 42 332 10322
6.6602583 -7.8331246 -0.88365436 516 64067700 5466 42 358 10323
6.5460949 -7.7952833 -0.87446243 508 64165670 5271 42 393 10220
6.4777937 -7.81077 -0.87160671 622 64263050 6424 42 358 10188
6.3899846 -7.8018265 -0.86598444 605 64360700 6174 42 322 10125
6.3225751 -7.8168817 -0.86321795 658 64457660 6695 42 333 10094
6.2869253 -7.8710938 -0.86500275 569 64556820 5777 42 372 10114
6.2089024 -7.8719845 -0.86071914 590 64653840 5953 42 393 10066
6.1353908 -7.8777161 -0.85706025 536 64749790 5364 42 378 10025
6.0705447 -7.8938971 -0.85465074 555 64850130 5535 42 373 9998
6.0448833 -7.9611392 -0.85804188 605 64948220 6065 42 328 10036
5.9959207 -7.9980803 -0.85804188 571 65047130 5719 42 362 10036
5.8294058 -7.8762074 -0.84037197 641 65143940 6182 42 373 9838
5.815639 -7.9592748 -0.84563726 679 65240910 6633 42 323 9897
5.4229054 -7.518219 -0.79298449 471 65340330 4056 42 549 9307
5.3812943 -7.5578423 -0.79369843 423 65436690 3654 42 565 9315
5.4654021 -7.7765093 -0.81404561 602 65533650 5452 42 386 9543
5.4005518 -7.785347 -0.81136835 573 65632460 5164 42 388 9513
5.2418299 -7.656436 -0.79378766 510 65730260 4390 42 478 9316
5.2092509 -7.7099123 -0.79610795 471 65828080 4089 42 513 9342
5.1463737 -7.7185273 -0.7936092 533 65925780 4606 42 473 9314
5.1301227 -7.7973866 -0.79869598 580 66022840 5055 42 380 9371
4.9796777 -7.6708274 -0.78182924 533 66121500 4477 42 460 9182
4.9206982 -7.682786 -0.77986592 525 66217740 4385 42 508 9160
4.7792902 -7.5638018 -0.76407009 606 66316200 4876 42 423 8983
4.9092956 -7.8761401 -0.79396617 463 66413480 4011 42 462 9318
4.8180976 -7.8365412 -0.78664833 527 66510590 4482 42 417 9236
4.7110453 -7.7688699 -0.77647471 569 66609200 4698 42 388 9122
4.6801581 -7.8258381 -0.77941972 579 66706630 4826 42 374 9155
4.5667801 -7.7437367 -0.7679075 576 66803190 4665 42 387 9026
4.4275498 -7.6140485 -0.75157624 586 66900910 4575 42 345 8843
4.2737379 -7.4544353 -0.73229998 543 66997330 4035 42 451 8627
4.2092938 -7.4475689 -0.72890878 528 67096070 3874 42 450 8589
4.2638659 -7.6533618 -0.74738187 455 67193810 3510 42 502 8796
4.2403173 -7.7221589 -0.7517547 542 67289910 4216 42 467 8845
4.0454221 -7.4756088 -0.72400045 452 67388570 3287 42 538 8534
3.946516 -7.40098 -0.71391612 476 67485430 3367 42 484 8421
4.1057982 -7.8147717 -0.75336105 561 67583420 4387 42 399 8863
4.0435767 -7.8123965 -0.75059456 575 67681050 4466 42 398 8832
3.8933175 -7.6365247 -0.73042589 617 67779810 4540 42 356 8606
3.8562207 -7.6798515 -0.73238921 619 67876890 4585 42 360 8628
3.796222 -7.6774769 -0.72980118 580 67975280 4258 42 359 8599
3.7547104 -7.7122669 -0.73096132 522 68072460 3857 42 456 8612
3.6625454 -7.6417513 -0.72168016 439 68170230 3173 42 537 8508
3.6381118 -7.711822 -0.72640997 561 68268640 4091 42 436 8561
3.5718491 -7.6933479 -0.72239411 572 68366940 4137 42 420 8516
3.5212653 -7.7078719 -0.72168016 521 68464150 3739 42 512 8508
3.5478132 -7.893764 -0.73783296 560 68562710 4215 42 421 8689
3.5138104 -7.9481783 -0.74104565 556 68660750 4213 42 411 8725
3.4582236 -7.9540615 -0.73952854 500 68757510 3778 42 439 8708
3.3377004 -7.8075356 -0.72319728 510 68855660 3677 42 468 8525
3.3167458 -7.8921428 -0.72944421 496 68953180 3641 42 480 8595
3.4234114 -8.2879324 -0.76585495 535 69050710 4325 42 393 9003
3.3376532 -8.2229548 -0.75755543 507 69149320 4001 42 458 8910
3.2882421 -8.2460556 -0.75782317 562 69246130 4458 42 438 8913
3.2433958 -8.2809143 -0.75925106 563 69343560 4478 42 387 8929
3.1800089 -8.2681236 -0.7561276 590 69443350 4646 42 418 8894
3.1362541 -8.3061161 -0.7579124 565 69540660 4464 42 371 8914
3.1098053 -8.3915119 -0.76424861 546 69637840 4382 42 373 8985
3.0637038 -8.4254122 -0.76567644 569 69736600 4575 42 380 9001
2.775351 -7.7808104 -0.70258236 431 69833930 2946 42 549 8294
2.8420095 -8.1248627 -0.73363858 552 69931500 4108 42 447 8642
2.7203717 -7.9329925 -0.71382689 506 70029750 3571 42 484 8420
2.5754948 -7.6634703 -0.68678653 579 70127120 3789 42 441 8117
2.6595771 -8.0774107 -0.72435743 586 70225120 4261 42 395 8538
2.5641077 -7.9513879 -0.71097112 538 70324180 3772 42 454 8388
2.5149705 -7.9660211 -0.71088189 576 70421660 4029 42 371 8387
2.4686911 -7.9898672 -0.71168506 634 70518930 4447 42 362 8396
2.421349 -8.0105848 -0.71222049 575 70616060 4043 42 382 8402
2.354645 -7.9660721 -0.70668751 546 70715020 3775 42 371 8340
2.2661831 -7.8435388 -0.69392592 531 70812650 3552 42 377 8197
2.2434516 -7.9473987 -0.70231467 472 70909920 3225 42 438 8291
2.1798201 -7.9072447 -0.69731712 422 71008630 2848 42 469 8235
2.0574927 -7.6463609 -0.67188317 585 71105340 3676 42 384 7950
2.0937507 -7.9757867 -0.70124376 507 71202620 3458 42 394 8279
1.9968522 -7.8012943 -0.68393081 565 71300670 3670 42 403 8085
1.9947535 -7.997014 -0.70088679 557 71397780 3792 42 369 8275
1.905671 -7.8445683 -0.68571568 525 71496070 3437 42 438 8105
1.8526883 -7.8357587 -0.68384159 509 71593300 3307 42 461 8084
1.7927414 -7.7955337 -0.67911172 479 71691140 3076 42 471 8031
1.7561747 -7.8569322 -0.68375236 506 71788720 3296 42 400 8083
1.7233596 -7.9386129 -0.69026697 517 71885730 3423 42 395 8156
1.715277 -8.1420107 -0.70793688 575 71983520 3999 42 341 8354
1.66728 -8.1621408 -0.70882934 568 72081710 3952 42 352 8364
1.6223879 -8.1985979 -0.71123886 613 72178890 4296 42 334 8391
1.5371989 -8.0264482 -0.69463986 465 72277190 3127 42 413 8205
1.4959011 -8.0788212 -0.6985665 569 72374460 3844 42 346 8249
1.4526153 -8.1231441 -0.70177919 583 72472340 3994 42 347 8285
1.4024066 -8.129941 -0.70160073 526 72569770 3593 42 379 8283
1.3255484 -7.9762759 -0.68687582 507 72666640 3327 42 359 8118
1.29813 -8.1190004 -0.69910192 500 72765290 3400 42 347 8255
1.233466 -8.0303354 -0.69035625 548 72862560 3626 42 345 8157
1.1808299 -8.015089 -0.68830365 527 72959690 3467 42 337 8134
1.1146511 -7.9018626 -0.67741615 575 73057270 3680 42 315 8012
1.0664114 -7.9105272 -0.67759466 575 73154400 3680 42 338 8014
1.0283977 -7.9989152 -0.68500173 554 73253510 3615 42 304 8097
0.9832902 -8.0376997 -0.68794668 566 73351650 3716 42 317 8130
0.93694097 -8.0693054 -0.69026697 641 73449230 4250 42 341 8156
0.88643146 -8.0659914 -0.68946379 589 73545220 3904 42 323 8147
0.84411603 -8.1406279 -0.69571078 595 73643360 4006 42 313 8217
0.79405349 -8.1446629 -0.69562149 573 73740180 3859 42 266 8216
0.74188954 -8.125576 -0.69347972 557 73838640 3718 42 328 8192
0.69573635 -8.1736422 -0.69740635 506 73935860 3427 42 309 8236
0.64917791 -8.2234316 -0.7015115 541 74034720 3705 42 325 8282
0.59747815 -8.210372 -0.69999439 531 74132150 3614 42 336 8265
0.54602939 -8.1979828 -0.6985665 545 74229060 3698 42 292 8249
0.49601787 -8.2061501 -0.6990127 532 74326950 3605 42 325 8254
0.44144255 -8.131464 -0.69205183 490 74424110 3269 42 335 8176
0.39259478 -8.1559067 -0.69401515 484 74522210 3233 42 327 8198
0.34174916 -8.1392546 -0.69231957 542 74620050 3614 42 308 8179
0.29133698 -8.1282587 -0.69115943 534 74717630 3550 42 305 8166
0.24216789 -8.1537867 -0.6933012 490 74815110 3279 42 360 8190
0.19215612 -8.1561155 -0.69339049 481 74913450 3208 42 321 8191
0.14203799 -8.1531572 -0.69303352 539 75012430 3601 42 326 8187
0.091963403 -8.1498919 -0.69267654 542 75110920 3614 42 376 8183
0.040375687 -7.8455272 -0.6653685 455 75207430 2808 42 394 7877
-0.0078631947 -7.9492126 -0.67464966 462 75304960 2927 42 402 7981
-0.058552314 -8.2189264 -0.69883424 489 75403670 3308 42 378 8252
-0.10745351 -8.1028852 -0.68848217 516 75502580 3396 42 345 8136
-0.15757482 -8.1229858 -0.69035625 531 75600060 3521 42 322 8157
-0.20502655 -8.0282717 -0.6819675 533 75697780 3459 42 347 8063
-0.25399971 -8.0179024 -0.68116432 497 75795380 3206 42 314 8054
-0.30537325 -8.0739202 -0.68634033 495 75893300 3231 42 342 8112
-0.36059132 -8.201251 -0.69794178 487 75990130 3283 42 306 8242
-0.40423042 -8.0655861 -0.68598336 492 76088620 3216 42 311 8108
-0.45276159 -8.0460491 -0.68446624 527 76186100 3432 42 309 8091
-0.48835316 -7.8224339 -0.66465455 501 76282910 3089 42 364 7869
-0.53470659 -7.7954421 -0.66251272 466 76381420 2857 42 434 7845
-0.61050904 -8.1664667 -0.69615698 524 76479970 3523 42 327 8222
-0.6618107 -8.1774578 -0.69749558 585 76578110 3953 42 271 8237
-0.7129246 -8.1841583 -0.69847727 581 76676320 3940 42 320 8248
-0.76275831 -8.175663 -0.6981203 535 76773380 3631 42 320 8244
-0.80955738 -8.1371307 -0.69508606 540 76870460 3621 42 307 8210
-0.83906358 -7.9388633 -0.67768389 530 76968750 3397 42 366 8015
-0.8899743 -7.953362 -0.67946869 502 77066790 3220 42 365 8035
-0.9433136 -7.9863281 -0.68294913 534 77163350 3469 42 328 8074
-0.98701578 -7.9378881 -0.67911172 537 77260060 3445 42 326 8031
-1.0425364 -7.9840269 -0.68384159 522 77358510 3386 42 324 8084
-1.080032 -7.8936 -0.676256 484 77456650 3087 42 411 7999
-1.1505889 -8.0416222 -0.69026697 569 77554280 3759 42 333 8156
-1.2047635 -8.0669193 -0.69321197 588 77651610 3924 42 320 8189
-1.2546979 -8.0623274 -0.69347972 589 77749230 3949 42 291 8192
-1.2977773 -8.0151482 -0.68991005 523 77846460 3463 42 334 8152
-1.3399948 -7.9657817 -0.68616188 536 77942820 3512 42 351 8110
-1.3857648 -7.9397483 -0.68455553 587 78039780 3833 42 302 8092
-1.4323293 -7.9193344 -0.68348461 554 78137460 3596 42 359 8080
-1.4803448 -7.9074597 -0.68321687 520 78236690 3379 42 349 8077
