# .PCD v0.7 - Point Cloud Data file format
VERSION 0.7
FIELDS x y z intensity t reflectivity ring ambient range
SIZE 4 4 4 4 4 2 1 2 4
TYPE F F F F U U U U U
COUNT 1 1 1 1 1 1 1 1 1
WIDTH 769
HEIGHT 1
VIEWPOINT 0 0 0 1 0 0 0
POINTS 769
DATA ascii
-9.3230515 -0.66753763 -1.7640879 395 98457460 3547 53 172 9519
-9.3436289 -0.61140925 -1.7673084 403 98553410 3640 53 191 9536
-9.3540649 -0.5544728 -1.7686344 399 98650740 3629 53 173 9543
-9.359252 -0.49717101 -1.7690134 415 98747960 3757 53 182 9545
-9.3660498 -0.43991849 -1.7697711 440 98846920 4006 53 182 9549
-9.3587618 -0.38204107 -1.7678767 427 98944750 3861 53 193 9539
-9.3413038 -0.3239297 -1.7640879 394 99041310 3548 53 172 9519
-9.3548937 -0.26694208 -1.7663612 432 99139700 3903 53 161 9531
-9.3740253 -0.20993163 -1.7697711 378 99236260 3423 53 184 9549
-9.3800459 -0.15248936 -1.7707183 431 99333740 3919 53 185 9554
-9.3788414 -0.094911806 -1.7703394 382 99432200 3463 53 170 9552
-9.37041 -0.03732764 -1.7686344 408 99527680 3710 53 186 9543
-9.3586798 0.020143049 -1.7663612 397 99624540 3591 53 197 9531
-9.3554344 0.077541932 -1.765793 390 99720900 3509 53 169 9528
-9.3724546 0.13519987 -1.7692028 412 99818840 3732 53 163 9546
-9.2906952 -0.15379758 -1.8460194 379 0 3391 54 193 9481
-9.304204 -0.096921116 -1.8486046 377 96360 3382 54 212 9494
-9.3212833 -0.039901558 -1.8519851 409 192710 3690 54 124 9511
-9.3252726 0.017300675 -1.8527805 385 289830 3480 54 183 9515
-9.3426313 0.074659623 -1.8563598 426 388490 3858 54 166 9533
-9.3468971 0.1320526 -1.8573542 380 485510 3432 54 194 9538
-9.3586483 0.18965939 -1.8599393 414 582680 3760 54 204 9551
-9.3622074 0.24720861 -1.8609335 425 679690 3875 54 194 9556
-9.344842 0.30413973 -1.8577518 398 776720 3600 54 163 9540
-9.3476963 0.36166221 -1.8587462 391 874300 3548 54 177 9545
-9.3648825 0.41988918 -1.8627232 401 970810 3644 54 203 9565
-9.376811 0.47809124 -1.8657061 379 1068830 3464 54 178 9580
-9.3707657 0.53544962 -1.8651096 401 1166480 3654 54 176 9577
-9.3819742 0.59386575 -1.8680923 430 1262670 3950 54 190 9592
-9.3977079 0.65277892 -1.8720695 409 1360570 3765 54 176 9612
-9.3827753 0.7096172 -1.869882 402 1457940 3692 54 175 9601
-9.381175 0.76741511 -1.8704786 373 1556440 3427 54 177 9604
-9.3704319 0.82444727 -1.8692855 372 1652850 3395 54 161 9598
-9.3700762 0.88238692 -1.8702798 386 1750520 3545 54 187 9603
-9.3800869 0.9414295 -1.8734614 367 1849280 3372 54 188 9619
-9.4053183 1.0022892 -1.8798248 367 1946100 3396 54 157 9651
-9.3980179 1.0598705 -1.8796259 396 2044710 3664 54 178 9650
-9.3874454 1.1170526 -1.8788304 374 2141370 3474 54 180 9646
-9.3891659 1.1757276 -1.8806202 418 2238480 3864 54 171 9655
-9.3866339 1.2339548 -1.8816144 400 2335300 3718 54 176 9660
-9.3973322 1.2940665 -1.8853927 384 2433650 3583 54 173 9679
-9.3892145 1.3517032 -1.8853927 361 2531220 3368 54 178 9679
-9.3691139 1.407542 -1.8830065 361 2627990 3358 54 188 9667
-9.3912849 1.4698517 -1.8893698 338 2725610 3167 54 156 9699
-9.4217491 1.5339035 -1.8975228 410 2822790 3863 54 213 9740
-9.4247217 1.5938094 -1.900108 257 2920880 2439 54 181 9753
-9.4186258 1.6522857 -1.9009033 139 3017960 1313 54 130 9757
-9.4382019 1.7154783 -1.9070679 334 3116300 3168 54 153 9788
-9.4400187 1.7757126 -1.9096529 389 3215260 3711 54 196 9801
-9.427022 1.833228 -1.9092553 430 3311510 4096 54 162 9799
-9.4175177 1.8914225 -1.9096529 371 3409820 3538 54 197 9801
-9.4038153 1.948774 -1.9092553 380 3506580 3624 54 185 9799
-9.4060574 2.0095088 -1.9122381 372 3604310 3550 54 160 9814
-9.4394922 2.0772946 -1.9217831 372 3700970 3613 54 183 9862
-9.4294357 2.1358244 -1.9223797 383 3798490 3722 54 174 9865
-9.4256983 2.1958656 -1.9243683 347 3895570 3369 54 177 9875
-9.3977509 2.2502365 -1.9213854 361 3993660 3477 54 161 9860
-9.4123173 2.3148785 -1.9273511 390 4091390 3809 54 181 9890
-9.4283428 2.3802633 -1.9337144 376 4188000 3695 54 199 9922
-9.4097652 2.4370871 -1.932919 375 4286400 3672 54 194 9918
-9.4183149 2.5010662 -1.9378904 377 4383170 3712 54 171 9943
-9.4160299 2.5624111 -1.9406743 385 4482130 3809 54 206 9957
-9.4237318 2.6267164 -1.9456457 370 4579430 3670 54 187 9982
-9.418746 2.6877167 -1.948032 373 4677290 3710 54 182 9994
-9.4001961 2.744909 -1.9476342 398 4773600 3947 54 188 9992
-9.3719082 2.7991705 -1.945248 351 4870980 3482 54 164 9980
-9.3845501 2.8657813 -1.9516114 347 4968290 3462 54 189 10012
-9.3733377 2.9253533 -1.9530033 355 5065830 3550 54 152 10019
-9.3561449 2.9831097 -1.9532022 358 5163660 3568 54 185 10020
-9.3609619 3.0480468 -1.9581735 368 5260680 3696 54 198 10045
-9.3644037 3.1128461 -1.9629461 410 5357640 4131 54 184 10069
-9.3590488 3.1749687 -1.9659289 411 5454500 4144 54 167 10084
-9.3310556 3.2294505 -1.9641392 418 5553220 4236 54 186 10075
-9.3092165 3.2859914 -1.9637415 368 5649510 3715 54 214 10073
-9.3017883 3.3476958 -1.9665254 393 5747450 3965 54 150 10087
-9.3114347 3.4158449 -1.9730877 405 5843960 4122 54 176 10120
-9.3270206 3.48664 -1.9810419 390 5942210 4020 54 177 10160
-9.3191891 3.5490355 -1.9840246 388 6040400 4001 54 182 10175
-9.3018055 3.6079221 -1.985019 389 6137160 4007 54 154 10180
-9.2849617 3.6670887 -1.9862121 393 6234190 4060 54 193 10186
-9.2650146 3.7250879 -1.9868087 399 6331920 4134 54 212 10189
-9.2710085 3.7937431 -1.993172 385 6429040 4016 54 178 10221
-9.2629366 3.8569615 -1.9965526 387 6526050 4028 54 195 10238
-9.2544374 3.9202232 -1.9999331 395 6624710 4138 54 180 10255
-9.2590103 3.9893422 -2.0062964 379 6721420 3993 54 188 10287
-9.2334604 4.0456858 -2.0060976 346 6818550 3655 54 176 10286
-9.2048817 4.1006703 -2.0053022 372 6917240 3896 54 171 10282
-9.1938314 4.1635413 -2.0084839 361 7014990 3793 54 153 10298
-9.1859169 4.2280703 -2.0124609 331 7113380 3498 54 160 10318
-9.170454 4.2893367 -2.0148473 355 7209690 3775 54 148 10330
-9.169632 4.3577232 -2.0206139 347 7307320 3706 54 183 10359
-9.1488991 4.4168873 -2.022006 335 7404430 3575 54 147 10366
-9.1313047 4.4776869 -2.0241933 350 7501610 3763 54 180 10377
-9.1062899 4.5349417 -2.02479 364 7598270 3905 54 182 10380
-9.0817909 4.5925002 -2.0255854 354 7696410 3810 54 189 10384
-9.0900583 4.6669374 -2.0339372 363 7793120 3941 54 173 10426
-9.063859 4.7239838 -2.0345337 350 7890550 3801 54 175 10429
-9.0528946 4.7891331 -2.0387099 339 7988960 3696 54 175 10450
-9.0285196 4.8473721 -2.0399029 356 8086120 3864 54 183 10456
-8.9848375 4.8951769 -2.0367212 323 8184730 3490 54 201 10440
-8.9632092 4.9549561 -2.0387099 317 8281690 3454 54 192 10450
-8.9728117 5.0323906 -2.0480559 318 8379220 3488 54 165 10497
-8.9528389 5.0936518 -2.0506411 296 8476700 3245 54 146 10510
-8.893404 5.1323252 -2.0440788 200 8574590 2182 54 142 10477
-8.8930407 5.2051134 -2.0514364 335 8672070 3677 54 157 10514
-8.8710489 5.2655849 -2.0538228 320 8770530 3530 54 166 10526
-8.8679609 5.3376055 -2.0607827 373 8867140 4143 54 177 10561
-8.835043 5.3919177 -2.0607827 368 8965680 4087 54 182 10561
-8.7976255 5.443449 -2.0597885 392 9064240 4341 54 167 10556
-8.7731924 5.5030556 -2.0619757 360 9160730 3991 54 180 10567
-8.7632446 5.5720325 -2.0677426 333 9259450 3710 54 181 10596
-8.7461901 5.6368465 -2.0719185 402 9355960 4510 54 213 10617
-8.7155409 5.6930857 -2.0729127 368 9453130 4132 54 202 10622
-8.6845303 5.7491608 -2.0739071 335 9549790 3756 54 163 10627
-8.6661816 5.8138051 -2.078083 313 9647940 3542 54 191 10648
-8.6562824 5.8845005 -2.0844464 351 9745050 3984 54 192 10680
-8.6369619 5.9491777 -2.0886223 371 9843290 4218 54 185 10701
-8.600296 6.0020614 -2.0886223 365 9940770 4172 54 190 10701
-8.5569038 6.0501924 -2.0870316 351 10038760 3995 54 186 10693
-8.5291805 6.1094308 -2.0894177 372 10136960 4256 54 184 10705
-8.5042248 6.1708589 -2.0925994 332 10233370 3799 54 171 10721
-8.4796257 6.2327905 -2.0959799 339 10330740 3902 54 182 10738
-8.4270725 6.2741685 -2.0924006 360 10427350 4108 54 180 10720
-8.4009361 6.3351989 -2.0955822 319 10525450 3650 54 150 10736
-8.4063005 6.4205327 -2.1069169 380 10622210 4399 54 161 10793
-8.3496923 6.4588008 -2.1025422 322 10720090 3718 54 176 10771
-8.3075905 6.5080986 -2.1019456 268 10818450 3089 54 183 10768
-8.3197098 6.600368 -2.1154678 329 10915360 3835 54 162 10836
-8.2759981 6.6488376 -2.1146724 339 11012020 3949 54 163 10832
-8.2167997 6.6846499 -2.1098998 327 11109190 3813 54 180 10808
-8.1930275 6.7492728 -2.1144733 314 11206670 3667 54 161 10831
-8.1582336 6.8050671 -2.1162632 292 11304250 3425 54 181 10840
-8.1283045 6.8651142 -2.1194448 284 11403060 3331 54 162 10856
-8.111352 6.9365149 -2.1262059 277 11500790 3268 54 160 10890
-8.0738249 6.9906449 -2.1275978 290 11597610 3435 54 200 10897
-8.0315161 7.0406995 -2.1277966 273 11695590 3201 54 171 10898
-7.9918284 7.0931001 -2.1287911 286 11792000 3373 54 144 10903
-7.9590902 7.1518288 -2.1317737 317 11890610 3749 54 167 10918
-7.9230323 7.2077842 -2.1339612 330 11986850 3926 54 151 10929
-7.8923535 7.2688775 -2.1377394 307 12085410 3651 54 158 10948
-7.8497548 7.3191724 -2.1383359 327 12184330 3892 54 170 10951
-7.8118243 7.3739266 -2.1403246 290 12279850 3456 54 152 10961
-7.7834368 7.4379702 -2.145097 354 12379800 4242 54 167 10985
-7.7580786 7.5053487 -2.1508639 315 12476810 3792 54 167 11014
-7.7062793 7.5473247 -2.1492732 364 12575050 4390 54 179 11006
-7.6681762 7.6027474 -2.1516593 382 12671560 4604 54 204 11018
-7.6310663 7.6593747 -2.1544433 310 12769650 3754 54 177 11032
-7.5839257 7.7060537 -2.1544433 336 12867130 4047 54 171 11032
-7.5563107 7.7728209 -2.1602101 349 12963990 4254 54 151 11061
-7.5179787 7.8289351 -2.1629941 371 13060950 4520 54 174 11075
-7.4704742 7.8756285 -2.163193 288 13158130 3526 54 179 11076
-7.4246898 7.9241786 -2.1639884 366 13256990 4474 54 175 11080
-7.4058847 8.0019522 -2.1729367 347 13353900 4274 54 189 11125
-7.3586302 8.0494127 -2.1735334 310 13452260 3817 54 204 11128
-7.3038468 8.0885944 -2.1719425 321 13551170 3937 54 189 11120
-7.2436409 8.1215563 -2.1687608 295 13647420 3617 54 191 11104
-7.2053328 8.1790857 -2.1723402 329 13746540 4062 54 186 11122
-7.1653047 8.234972 -2.1755219 312 13843300 3851 54 178 11138
-7.1235833 8.2891884 -2.1783059 317 13940830 3932 54 210 11152
-7.0833693 8.3454428 -2.1816864 309 14039540 3822 54 188 11169
-7.0364366 8.3940058 -2.1830783 317 14136030 3952 54 190 11176
-6.9910493 8.4445715 -2.1850669 313 14235360 3910 54 178 11186
-6.9465466 8.4964132 -2.1874533 323 14332440 4015 54 212 11198
-6.8985925 8.5442142 -2.1888452 303 14430580 3795 54 202 11205
-6.8435926 8.5833168 -2.1880498 322 14528830 4019 54 188 11201
-6.793829 8.6289968 -2.189044 323 14625340 4022 54 202 11206
-6.7600036 8.6952791 -2.1954074 326 14722910 4096 54 189 11238
-6.7124906 8.7443676 -2.1973958 379 14821060 4774 54 195 11248
-6.6646299 8.7932005 -2.1993845 368 14919650 4644 54 185 11258
-6.6164222 8.8417749 -2.2013731 368 15017640 4652 54 180 11268
-6.5649571 8.8861475 -2.2023673 366 15114970 4631 54 179 11273
-6.5183945 8.9373474 -2.2051513 343 15212870 4334 54 209 11287
-6.4788947 8.9986486 -2.2105203 366 15309680 4664 54 189 11314
-6.4201517 9.0334396 -2.2093272 413 15406640 5270 54 208 11308
-6.371357 9.0822906 -2.2117136 325 15504010 4153 54 224 11320
-6.3138351 9.1187963 -2.2111168 364 15601660 4640 54 200 11317
-6.250576 9.1468468 -2.2085319 373 15699130 4746 54 184 11304
-6.1866627 9.1736526 -2.2057478 343 15795380 4339 54 182 11290
-6.1329727 9.2155199 -2.206742 232 15894610 2940 54 178 11295
-6.0865331 9.2685413 -2.2105203 171 15992030 2181 54 185 11314
-6.0615239 9.3550615 -2.2224517 273 16089140 3510 54 196 11374
-6.0172052 9.4127207 -2.227423 298 16186570 3863 54 194 11399
-5.9535856 9.4403458 -2.2252357 336 16281750 4335 54 201 11388
-5.8991728 9.4825239 -2.2266276 354 16381790 4585 54 214 11395
-5.8501043 9.533577 -2.230207 370 16478950 4796 54 207 11413
-5.7859154 9.560071 -2.2280195 313 16575460 4061 54 190 11402
-5.7221241 9.586977 -2.2260311 354 16674190 4583 54 214 11392
-5.6800942 9.6506224 -2.2327921 348 16772570 4533 54 208 11426
-5.6365137 9.7124176 -2.2391555 339 16869380 4438 54 221 11458
-5.5719461 9.7383137 -2.2371669 329 16967170 4301 54 205 11448
-5.5144958 9.7765865 -2.2381611 358 17065510 4658 54 220 11453
-5.4610715 9.8222303 -2.2409451 326 17163160 4262 54 217 11467
-5.4030557 9.8598509 -2.2419393 353 17261130 4620 54 225 11472
-5.3527002 9.9117889 -2.2463143 316 17358160 4148 54 231 11494
-5.2963858 9.9530973 -2.2483027 319 17456710 4208 54 238 11504
-5.2324848 9.9802008 -2.2471097 329 17554800 4341 54 189 11498
-5.1684504 10.006894 -2.2459166 355 17651260 4665 54 207 11492
-5.1100626 10.044533 -2.2473085 323 17749650 4233 54 213 11499
-5.0553589 10.089718 -2.2504902 324 17847910 4272 54 213 11515
-5.0050631 10.144277 -2.2558591 333 17944870 4398 54 220 11542
-4.940155 10.169507 -2.2546661 315 18042920 4180 54 213 11536
-4.8814688 10.207584 -2.2564559 340 18140250 4508 54 206 11545
-4.8149877 10.229364 -2.2546661 360 18237360 4754 54 205 11536
-4.7611938 10.278279 -2.2590408 293 18335720 3889 54 218 11558
-4.7090125 10.331377 -2.26441 311 18433740 4137 54 206 11585
-4.6487398 10.36723 -2.2660007 305 18530770 4091 54 191 11593
-4.5976968 10.424253 -2.2723641 302 18628400 4055 54 224 11625
-4.540278 10.467552 -2.2757447 290 18726590 3913 54 262 11642
-4.4836545 10.513244 -2.2797217 298 18823570 4035 54 264 11662
-4.445209 10.602919 -2.2934427 309 18920630 4211 54 231 11731
-4.37708 10.622746 -2.291852 300 19019240 4095 54 238 11723
-4.3118172 10.649403 -2.291852 302 19115850 4126 54 208 11723
-4.1301141 10.383348 -2.2280195 282 19213630 3636 54 269 11402
-3.9279475 10.054317 -2.1508639 393 19311670 4739 54 262 11014
-3.8696918 10.087379 -2.1528525 320 19408230 3865 54 229 11024
-3.7731824 10.019218 -2.132967 528 19507090 6280 54 324 10924
-3.7014413 10.014605 -2.1270013 543 19606000 6410 54 338 10894
-3.6733365 10.129258 -2.1468868 492 19703010 5913 54 322 10994
-3.6258969 10.193157 -2.1558352 580 19801060 7020 54 340 11039
-3.5603793 10.206885 -2.1540456 522 19899050 6300 54 370 11030
-3.4954641 10.222048 -2.1526537 493 19995310 5967 54 335 11023
-3.4507396 10.297199 -2.1641872 542 20094220 6633 54 326 11081
-3.3826008 10.303281 -2.1610055 506 20192050 6186 54 309 11065
-3.3199174 10.325707 -2.1614032 555 20288810 6788 54 314 11067
-3.2620885 10.363646 -2.1651814 557 20386190 6811 54 320 11086
-3.2157485 10.439662 -2.1771128 523 20484480 6470 54 374 11146
-3.1589837 10.483594 -2.1822829 521 20582170 6466 54 341 11172
-3.0932131 10.498079 -2.1812887 500 20679850 6224 54 335 11167
-3.0401318 10.556415 -2.1896405 509 20778140 6372 54 323 11209
-2.9840615 10.606002 -2.1962028 499 20876700 6281 54 353 11242
-2.9178896 10.620332 -2.1954074 531 20973310 6682 54 337 11238
-2.8580005 10.657914 -2.1995833 528 21071560 6665 54 368 11259
-2.7923028 10.674301 -2.1993845 484 21170370 6099 54 321 11258
-2.7272384 10.693133 -2.1997821 529 21267700 6671 54 332 11260
-2.6743402 10.761024 -2.2105203 484 21364710 6157 54 346 11314
-2.610106 10.784852 -2.2121112 494 21463020 6294 54 343 11322
-2.5560162 10.852176 -2.2228494 505 21560840 6498 54 330 11376
-2.4891615 10.8667 -2.2226505 516 21657350 6639 54 335 11375
-2.4192431 10.867419 -2.2196677 496 21753960 6376 54 340 11360
-2.3533447 10.885891 -2.220463 456 21851690 5876 54 346 11364
-2.293951 10.935614 -2.2278206 457 21950550 5913 54 357 11401
-2.2273943 10.952365 -2.2284172 458 22047310 5919 54 335 11404
-2.159771 10.963902 -2.2280195 506 22145410 6565 54 351 11402
-2.0919065 10.97406 -2.227423 481 22243970 6215 54 315 11399
-2.0225778 10.976088 -2.2252357 468 22340930 6029 54 361 11388
-1.950899 10.96417 -2.2202642 460 22437470 5916 54 325 11363
-1.8774534 10.940195 -2.2129066 484 22535830 6173 54 323 11326
-1.808372 10.939906 -2.2105203 511 22633260 6490 54 342 11314
-1.7398267 10.942085 -2.2087307 473 22729870 6011 54 305 11305
-1.6748743 10.967087 -2.2117136 444 22826900 5681 54 313 11320
-1.6106746 10.99849 -2.2160883 448 22924570 5728 54 314 11342
-1.5435671 11.011077 -2.2166848 462 23023080 5922 54 334 11345
-1.4814402 11.061138 -2.2250366 455 23121010 5874 54 342 11387
-1.4161497 11.090435 -2.2292128 479 23217670 6220 54 353 11408
-1.3432277 11.059028 -2.2210596 472 23315860 6076 54 316 11367
-1.270408 11.024223 -2.2123101 473 23413240 6028 54 321 11323
-1.2013595 11.019146 -2.2097249 454 23511040 5799 54 301 11310
-1.1372339 11.060431 -2.2166848 496 23607750 6361 54 318 11345
-1.0706668 11.080857 -2.2194688 476 23704760 6101 54 362 11359
-1.0040685 11.102835 -2.2226505 437 23803670 5630 54 329 11375
-0.93600613 11.109763 -2.2228494 424 23901760 5475 54 341 11376
-0.86316562 11.055696 -2.2107191 451 23998470 5737 54 334 11315
-0.79671907 11.080335 -2.2146962 472 24095980 6039 54 344 11335
-0.72948819 11.09675 -2.2170825 447 24194160 5730 54 335 11347
-0.66266882 11.12254 -2.2214572 408 24292400 5248 54 344 11369
-0.59587431 11.153798 -2.2270253 373 24390280 4830 54 360 11397
-0.52682275 11.144518 -2.2244401 416 24486740 5354 54 333 11384
-0.45935807 11.170062 -2.2290139 415 24586270 5378 54 312 11407
-0.39002272 11.150144 -2.2244401 450 24684310 5810 54 314 11384
-0.32145801 11.147429 -2.2234459 463 24782300 5958 54 332 11379
-0.25396532 11.189363 -2.2315989 436 24880800 5652 54 304 11420
-0.18567763 11.213247 -2.2361727 444 24977780 5769 54 281 11443
-0.11719849 11.245535 -2.2425361 456 25076270 5994 54 319 11475
-0.048211869 11.249963 -2.2433314 467 25173680 6129 54 326 11479
0.020812141 11.247107 -2.2427349 466 25271120 6127 54 312 11476
0.089682229 11.229127 -2.2391555 443 25369270 5782 54 305 11458
0.15912002 11.266582 -2.2469108 432 25465580 5691 54 282 11497
0.22830698 11.268333 -2.2475073 408 25562840 5376 54 286 11500
0.29723716 11.258883 -2.2459166 431 25661450 5682 54 323 11492
0.3659007 11.244114 -2.2433314 408 25758010 5357 54 276 11479
0.43602222 11.271036 -2.2492969 459 25857020 6035 54 281 11509
0.50648791 11.29752 -2.2552626 462 25955060 6130 54 293 11539
0.57599813 11.298115 -2.256058 455 26052120 6042 54 290 11543
0.64525533 11.293389 -2.2558591 474 26151400 6263 54 323 11542
0.71478564 11.29313 -2.2566547 506 26249190 6699 54 284 11546
0.78338671 11.278754 -2.2546661 447 26346670 5924 54 328 11536
0.8533898 11.284485 -2.2568536 461 26444450 6110 54 315 11547
0.92237443 11.276106 -2.2562571 483 26541730 6419 54 266 11544
0.99266219 11.282926 -2.258842 457 26637970 6082 54 301 11557
1.0636195 11.295161 -2.2626202 457 26736110 6105 54 283 11576
1.1364276 11.323526 -2.269779 476 26833860 6383 54 301 11612
1.2046402 11.304646 -2.2673929 470 26932520 6302 54 309 11600
1.2735423 11.293147 -2.2665975 472 27030760 6324 54 313 11596
1.342696 11.284146 -2.2663984 491 27127920 6578 54 316 11595
1.4091089 11.253329 -2.2618248 457 27225420 6098 54 303 11572
1.4788977 11.250301 -2.2630179 451 27322730 6011 54 290 11578
1.5484351 11.244899 -2.2638135 475 27419290 6351 54 293 11582
1.6181015 11.240036 -2.2648077 470 27516910 6285 54 332 11587
1.6902411 11.251218 -2.2691824 490 27614660 6591 54 340 11609
1.764397 11.273555 -2.2759435 520 27713100 7028 54 292 11643
1.8346392 11.269288 -2.2773356 500 27810990 6778 54 298 11650
1.9071828 11.278111 -2.2815115 459 27908620 6242 54 316 11671
1.9826126 11.301912 -2.2888691 492 28006220 6707 54 311 11708
2.0498197 11.277964 -2.2864828 500 28103790 6832 54 299 11696
2.1177135 11.258432 -2.2850909 447 28200650 6081 54 331 11689
2.1869411 11.246188 -2.2852898 435 28298330 5923 54 296 11690
2.2615008 11.260422 -2.2910566 485 28396170 6614 54 271 11719
2.3251822 11.220424 -2.2856874 445 28494680 6061 54 309 11692
2.3890722 11.182943 -2.280915 496 28592260 6730 54 310 11668
2.4538536 11.150846 -2.2773356 480 28689420 6494 54 283 11650
2.5163829 11.109772 -2.2719665 466 28788130 6289 54 291 11623
2.5876164 11.107485 -2.2747505 489 28884440 6587 54 298 11637
2.6504738 11.069477 -2.2701769 448 28983800 6012 54 269 11614
2.7473645 11.171014 -2.2948349 452 29081550 6184 54 250 11738
2.8141778 11.147295 -2.2934427 490 29178210 6699 54 260 11731
2.8729415 11.092816 -2.2856874 495 29276250 6718 54 295 11692
2.9346638 11.0513 -2.2807162 458 29372960 6201 54 280 11667
3.0042193 11.039704 -2.2821081 450 29471110 6112 54 293 11674
3.0755847 11.03428 -2.2848921 438 29569350 5947 54 310 11688
3.1564078 11.061379 -2.294636 434 29666210 5935 54 244 11737
3.2242198 11.041803 -2.294636 454 29763890 6210 54 261 11737
3.2905083 11.017117 -2.2936416 478 29862050 6560 54 278 11732
3.3603356 11.004218 -2.2952325 500 29959010 6859 54 270 11740
3.4295447 10.989005 -2.2964256 498 30056950 6826 54 258 11746
3.4680324 10.877184 -2.2771368 471 30154880 6359 54 276 11649
3.5268197 10.83147 -2.2719665 477 30252260 6399 54 264 11623
3.5684845 10.735227 -2.256058 456 30350000 6044 54 272 11543
3.6405838 10.73169 -2.2600353 485 30447060 6463 54 297 11563
3.7057226 10.707297 -2.2596374 462 30544440 6155 54 290 11561
3.7364502 10.585474 -2.2383599 500 30641810 6528 54 280 11454
3.7552042 10.434172 -2.2107191 474 30739140 6025 54 276 11315
3.8363688 10.457857 -2.2208607 459 30837040 5886 54 272 11366
3.8791902 10.377206 -2.2085319 467 30933380 5948 54 284 11304
3.9396517 10.344965 -2.206742 400 31030560 5068 54 316 11295
3.8970942 10.047397 -2.1472845 311 31129770 3732 54 387 10996
3.9748695 10.064314 -2.1562331 337 31227960 4101 54 412 11041
3.8950748 9.6878376 -2.0792761 271 31326120 3052 54 478 10654
4.1147757 10.055594 -2.1651814 395 31424050 4817 54 350 11086
4.1763983 10.030158 -2.1651814 345 31522140 4228 54 350 11086
4.3074312 10.168582 -2.2013731 439 31620500 5530 54 285 11268
4.370131 10.142861 -2.2015719 392 31718380 4935 54 269 11269
4.4145865 10.075461 -2.1926234 428 31814990 5359 54 295 11224
4.47473 10.044603 -2.191828 423 31913080 5307 54 282 11220
4.5350657 10.014279 -2.1912315 404 32010560 5052 54 284 11217
4.5267706 9.834919 -2.1574261 349 32106920 4241 54 400 11047
4.6343637 9.9081602 -2.1800954 454 32203310 5613 54 273 11161
4.6921272 9.8733416 -2.1787035 496 32301010 6117 54 268 11154
4.7483602 9.8355398 -2.1767149 473 32399250 5846 54 265 11144
4.7421751 9.6707077 -2.1460915 395 32497600 4737 54 325 10990
4.8210826 9.6809063 -2.1550398 435 32595840 5278 54 301 11035
4.8830462 9.6563892 -2.1562331 430 32695070 5220 54 314 11041
4.8978934 9.5399332 -2.1365464 381 32793110 4526 54 336 10942
4.8657513 9.3358831 -2.0967753 333 32889770 3814 54 398 10742
4.8294597 9.1291285 -2.0562091 351 32987130 3891 54 297 10538
5.0851789 9.4714756 -2.1419153 349 33084730 4183 54 391 10969
5.0194225 9.2128963 -2.0894177 366 33183220 4159 54 355 10705
5.1000371 9.225668 -2.0995593 354 33280600 4075 54 319 10756
5.1963372 9.2651482 -2.1160643 382 33377770 4478 54 323 10839
5.2535739 9.2339411 -2.1162632 467 33475920 5470 54 286 10840
5.2714367 9.1344738 -2.1005535 466 33573490 5386 54 329 10761
5.3204551 9.0901155 -2.0977697 445 33671070 5120 54 305 10747
5.4091449 9.1129208 -2.110894 409 33768150 4748 54 337 10813
5.3856158 8.9477301 -2.0796738 505 33866390 5705 54 298 10656
5.5266933 9.0558949 -2.1132803 413 33964540 4821 54 303 10825
5.5692644 9.0009785 -2.108309 470 34061150 5464 54 290 10800
5.66084 9.0247526 -2.1222289 466 34157340 5496 54 329 10870
5.720315 8.9964647 -2.1238196 446 34255380 5271 54 290 10878
5.8046074 9.0065041 -2.1347566 527 34352390 6270 54 290 10933
5.8565454 8.9657955 -2.1335635 518 34450090 6156 54 279 10927
5.867631 8.8634977 -2.1174562 474 34547470 5537 54 273 10846
5.9502959 8.8696489 -2.1277966 484 34644990 5719 54 289 10898
6.0035048 8.8313503 -2.127399 531 34742940 6289 54 257 10896
6.0214462 8.7418852 -2.1144733 513 34840310 5991 54 261 10831
6.0732894 8.702363 -2.1138768 554 34937940 6467 54 277 10828
6.1401501 8.6841393 -2.1186495 558 35036550 6563 54 303 10852
6.2287011 8.6956987 -2.1309783 529 35134430 6271 54 293 10914
6.3015084 8.6842861 -2.1377394 508 35231140 6057 54 297 10948
6.3807936 8.6809921 -2.146688 528 35328830 6339 54 275 10993
6.487196 8.713212 -2.1647837 529 35426360 6469 54 285 11084
6.5629592 8.7029781 -2.1723402 583 35524800 7205 54 294 11122
6.645978 8.7014875 -2.1822829 530 35622330 6572 54 285 11172
6.7328224 8.7039557 -2.1934187 476 35719510 5973 54 258 11228
6.8054419 8.6871681 -2.1997821 519 35818020 6544 54 222 11260
6.8671441 8.6559963 -2.2025661 544 35917690 6873 54 256 11274
6.9913254 8.7023239 -2.2256334 543 36015370 7014 54 271 11390
7.087882 8.7124796 -2.2395532 483 36113620 6328 54 252 11460
7.1704931 8.7043772 -2.2488992 457 36211260 6038 54 230 11507
7.243227 8.683547 -2.2550638 552 36309300 7306 54 250 11538
7.3665619 8.7220488 -2.2771368 510 36407230 6888 54 273 11649
7.4301314 8.6886015 -2.2803183 549 36504870 7463 54 294 11665
7.5096049 8.6732254 -2.2884715 524 36603070 7150 54 258 11706
7.5697875 8.6350908 -2.2906587 529 36700740 7229 54 282 11717
7.659709 8.6302614 -2.3019936 540 36799140 7459 54 226 11774
7.7269292 8.5991373 -2.3063684 557 36896570 7722 54 234 11796
7.7709742 8.5421391 -2.3037832 557 36993640 7702 54 263 11783
7.8663955 8.5411549 -2.3167088 538 37092090 7507 54 248 11848
7.9046202 8.4776735 -2.3125329 551 37189830 7673 54 278 11827
7.9706163 8.4439783 -2.3167088 564 37287160 7897 54 282 11848
8.0493603 8.423255 -2.3246629 519 37384980 7289 54 257 11888
8.1097507 8.382863 -2.3272481 529 37483540 7457 54 285 11901
8.1637774 8.3357458 -2.3280435 540 37580820 7616 54 302 11905
8.2278805 8.2987204 -2.3318217 512 37678100 7218 54 268 11924
8.2633724 8.2328606 -2.3274469 552 37775360 7772 54 275 11902
8.3109388 8.1792526 -2.3266516 502 37873450 7071 54 290 11898
8.3686991 8.1356182 -2.3288391 527 37970730 7440 54 278 11909
8.4290638 8.0942984 -2.3318217 524 38069240 7415 54 289 11924
8.4543962 8.0194941 -2.3250606 534 38166620 7530 54 272 11890
8.5141706 7.9775195 -2.3280435 516 38263330 7280 54 277 11905
8.5629597 7.9251275 -2.3280435 525 38360750 7394 54 269 11905
8.6208286 7.8810334 -2.3306286 550 38457870 7788 54 312 11918
8.6675692 7.8266749 -2.330231 558 38555290 7912 54 322 11916
8.7190866 7.7766061 -2.3312252 557 38654150 7883 54 261 11921
8.7651682 7.7216644 -2.3308275 506 38751380 7177 54 317 11919
8.8242111 7.6780305 -2.3340092 525 38849010 7429 54 277 11935
8.8496017 7.605217 -2.3282423 542 38945930 7655 54 343 11906
8.8946056 7.5495052 -2.3278446 510 39042890 7189 54 310 11904
8.9422636 7.4960461 -2.3282423 593 39140420 8371 54 288 11906
8.9918642 7.4441614 -2.3292367 556 39237450 7867 54 293 11911
9.0555811 7.4037361 -2.3340092 540 39333490 7658 54 280 11935
9.1603136 7.3960552 -2.34952 588 39431470 8450 54 289 12013
9.252265 7.3769794 -2.36165 587 39528500 8537 54 274 12074
9.3427849 7.3558393 -2.3733823 558 39627560 8164 54 285 12133
9.4163704 7.3206315 -2.3807402 513 39725250 7561 54 291 12170
9.4572248 7.2597318 -2.3797457 516 39822780 7596 54 308 12165
9.4765987 7.1826229 -2.3733823 523 39920660 7672 54 322 12133
9.4922447 7.1032019 -2.3662236 551 40018400 8025 54 306 12097
9.590827 7.0855904 -2.3801434 571 40116790 8416 54 290 12167
9.6650028 7.0491319 -2.3878989 594 40214590 8799 54 281 12206
9.7311373 7.0063024 -2.3936656 579 40311700 8630 54 280 12235
9.7715473 6.9447579 -2.393069 571 40408570 8508 54 276 12232
9.7858963 6.8649707 -2.3861091 533 40506820 7919 54 309 12197
9.8294458 6.805912 -2.3865068 559 40604200 8295 54 294 12199
9.8621206 6.7393894 -2.3843195 551 40702340 8144 54 322 12188
9.8000984 6.6091561 -2.3590648 577 40799200 8339 54 323 12061
9.8306761 6.5423837 -2.3566787 577 40896160 8322 54 325 12049
9.8304949 6.4555798 -2.3469348 578 40995540 8298 54 314 12000
9.8830805 6.4036665 -2.3501165 645 41092910 9278 54 283 12016
9.8817263 6.3170385 -2.3403726 521 41190140 7422 54 313 11967
9.9136696 6.2521043 -2.3387816 544 41287470 7769 54 322 11959
9.944356 6.1864982 -2.336992 603 41385810 8559 54 303 11950
9.983799 6.1263895 -2.3373897 564 41483290 8030 54 331 11952
10.021202 6.0650144 -2.3373897 578 41579900 8232 54 314 11952
10.058228 6.0034113 -2.3373897 587 41677990 8358 54 332 11952
10.119367 5.9559989 -2.3431566 581 41777100 8277 54 276 11981
10.223532 5.9331503 -2.3590648 606 41874630 8766 54 271 12061
10.308229 5.8980513 -2.3703997 609 41971810 8892 54 285 12118
10.484214 5.9136558 -2.4030118 564 42068870 8495 54 214 12282
10.55542 5.8687406 -2.4111648 414 42167130 6258 54 222 12323
10.57834 5.7967987 -2.4081819 301 42264140 4551 54 183 12308
10.557659 5.7015114 -2.3952565 322 42361320 4794 54 246 12243
10.529288 5.603014 -2.3807402 280 42459560 4120 54 214 12170
10.494033 5.501895 -2.3648317 276 42557290 4015 54 264 12090
10.526723 5.4369516 -2.3646328 282 42654610 4094 54 217 12089
10.552897 5.3687034 -2.3630419 305 42753070 4438 54 217 12081
10.58126 5.3016558 -2.3620477 339 42850750 4929 54 231 12076
10.588104 5.2240548 -2.3562808 307 42947830 4422 54 148 12047
10.577646 5.1384335 -2.346736 312 43045560 4442 54 172 11999
10.597483 5.0679364 -2.3441508 116 43142570 1658 54 183 11986
10.619513 4.9986424 -2.3421621 64 43239440 899 54 148 11976
10.647316 4.9321523 -2.3415656 243 43335890 3465 54 151 11973
10.664894 4.8610377 -2.3387816 294 43433310 4196 54 184 11959
10.651597 4.7762594 -2.3292367 306 43532080 4321 54 165 11911
10.651113 4.6977606 -2.3226745 294 43629500 4140 54 182 11878
10.642874 4.6163282 -2.3145213 306 43726680 4262 54 207 11837
10.668295 4.5497847 -2.3139248 315 43825690 4377 54 170 11834
10.676127 4.475903 -2.30955 312 43921880 4305 54 166 11812
10.679831 4.4006033 -2.3043797 285 44018540 3937 54 180 11786
10.686646 4.3268981 -2.300005 336 44117150 4628 54 186 11764
10.700246 4.2561731 -2.2972209 333 44214530 4562 54 185 11750
10.711555 4.1847315 -2.2940392 367 44312330 5017 54 182 11734
10.712325 4.1094499 -2.2886703 336 44410670 4580 54 204 11707
10.721747 4.0377707 -2.2852898 337 44507830 4595 54 202 11690
10.73529 3.9678299 -2.2829034 334 44604540 4534 54 177 11678
10.746535 3.8972068 -2.2801194 306 44702280 4143 54 167 11664
10.754549 3.8256099 -2.2767389 307 44799410 4128 54 196 11647
10.765791 3.7553527 -2.2741539 343 44894940 4607 54 185 11634
10.756175 3.6781251 -2.267194 329 44992220 4417 54 195 11599
10.762744 3.6067631 -2.2638135 333 45090610 4433 54 177 11582
10.766981 3.5348475 -2.2600353 357 45187570 4750 54 198 11563
10.748349 3.4558163 -2.2514844 362 45285210 4769 54 186 11520
10.761873 3.3874464 -2.2498937 328 45383310 4326 54 187 11512
10.779646 3.3204834 -2.2492969 324 45480120 4271 54 182 11509
10.766974 3.2443812 -2.242337 309 45578930 4033 54 196 11474
10.780099 3.176316 -2.2409451 301 45676510 3950 54 182 11467
10.785259 3.1060424 -2.2379622 315 45773270 4124 54 177 11452
10.78619 3.0347631 -2.234184 327 45871660 4266 54 192 11433
10.764917 2.9576175 -2.2258322 308 45968170 3975 54 191 11391
10.752572 2.8833861 -2.2194688 261 46065650 3346 54 192 11359
10.781439 2.8203318 -2.2218552 307 46163640 3937 54 173 11371
10.762456 2.7449205 -2.2142985 321 46260600 4089 54 189 11333
10.758172 2.6736312 -2.2099237 316 46358290 4024 54 167 11311
10.790567 2.6114893 -2.2133043 331 46456910 4240 54 184 11328
10.792079 2.5418599 -2.2103214 328 46555300 4179 54 167 11313
10.764484 2.4657452 -2.2013731 355 46651960 4486 54 196 11268
10.80524 2.4053996 -2.206742 359 46750150 4560 54 178 11295
10.746037 2.3231075 -2.1914303 338 46847730 4233 54 183 11218
10.745703 2.2541089 -2.1884475 347 46944960 4334 54 200 11203
10.758371 2.1879368 -2.1882486 336 47042780 4197 54 175 11202
10.753324 2.1182842 -2.1844704 379 47140580 4720 54 183 11183
10.738201 2.0469406 -2.1787035 346 47238720 4294 54 210 11154
10.756342 1.9820795 -2.1798966 755 47335900 9362 54 262 11160
10.745144 1.9119216 -2.1751242 905 47433060 11197 54 242 11136
10.714173 1.8386601 -2.1663744 482 47530950 5894 54 220 11092
10.690445 1.7671299 -2.1592157 362 47628130 4395 54 170 11056
10.6856 1.6990386 -2.156034 365 47725460 4421 54 146 11040
10.693887 1.6331451 -2.1556363 377 47823900 4577 54 158 11038
10.668797 1.5623848 -2.1484776 148 47922000 1774 54 168 11002
10.692741 1.498934 -2.1514604 277 48020660 3355 54 186 11017
10.697852 1.432776 -2.150665 348 48117570 4191 54 170 11013
10.700609 1.3663633 -2.149472 384 48215090 4634 54 171 11007
10.678633 1.297016 -2.1433074 335 48312720 4005 54 179 10976
10.673734 1.2300099 -2.1407223 351 48410000 4200 54 181 10963
10.678157 1.1641752 -2.1401258 352 48505590 4220 54 193 10960
10.666576 1.0967284 -2.1363475 325 48603370 3884 54 178 10941
10.662374 1.0302218 -2.13416 330 48700080 3922 54 195 10930
10.650927 0.96319008 -2.1305807 347 48798790 4112 54 197 10912
10.641011 0.89650232 -2.127399 331 48896170 3923 54 181 10896
10.632632 0.83012515 -2.124615 302 48993130 3557 54 186 10882
10.643391 0.76529074 -2.1258082 310 49090600 3655 54 196 10888
10.655709 0.70048422 -2.127399 322 49188750 3803 54 194 10896
10.634372 0.63357282 -2.1222289 318 49286640 3740 54 168 10870
10.621422 0.56742042 -2.1188483 323 49383200 3773 54 191 10853
10.589462 0.50057113 -2.1116896 318 49480210 3704 54 171 10817
10.591355 0.43554571 -2.1114907 341 49578460 3961 54 164 10816
10.585013 0.37024164 -2.1097009 355 49676920 4129 54 163 10807
10.585127 0.30522969 -2.1093032 346 49774960 4033 54 181 10805
10.592679 0.24040841 -2.1104963 330 49871720 3839 54 180 10811
10.591994 0.17537592 -2.1100986 373 49968900 4338 54 194 10809
10.582091 0.11026876 -2.1079113 343 50066870 3966 54 211 10798
10.579629 0.045323528 -2.1073146 368 50163090 4269 54 191 10795
10.567947 -0.019571221 -2.1049285 368 50261230 4239 54 164 10783
10.557829 -0.084336519 -2.1029398 317 50358140 3672 54 186 10773
10.534574 -0.14879876 -2.0983663 337 50457720 3888 54 174 10750
10.49329 -0.21262188 -2.0902131 323 50554580 3674 54 185 10709
10.491788 -0.2770035 -2.0902131 345 50652220 3930 54 156 10709
10.483034 -0.34115171 -2.0888212 356 50751030 4046 54 195 10702
10.480743 -0.40546799 -2.0888212 318 50846910 3621 54 213 10702
10.475121 -0.46963736 -2.0882246 346 50945370 3953 54 190 10699
10.469106 -0.53375304 -2.0876281 348 51043000 3971 54 220 10696
10.449979 -0.59708613 -2.0844464 323 51140420 3654 54 190 10680
10.443184 -0.66100907 -2.0838499 349 51238720 3960 54 184 10677
10.430133 -0.72446388 -2.0820601 321 51334660 3625 54 174 10668
10.414742 -0.78763562 -2.0798726 354 51433170 4012 54 202 10657
10.415573 -0.85200369 -2.0810659 328 51530280 3710 54 192 10663
10.401362 -0.91512364 -2.0792761 329 51627560 3727 54 197 10654
10.377989 -0.97727454 -2.0756967 322 51724590 3626 54 173 10636
10.379599 -1.0417171 -2.0772877 343 51821500 3857 54 181 10644
10.35547 -1.1035166 -2.0737083 360 51919070 4035 54 186 10626
10.329026 -1.1648397 -2.0697312 370 52016500 4145 54 174 10606
10.302221 -1.2258801 -2.0657539 366 52114340 4083 54 191 10586
10.299368 -1.2896789 -2.0667484 396 52211250 4414 54 164 10591
10.283487 -1.3518288 -2.0651574 369 52310270 4105 54 174 10583
10.255582 -1.4122282 -2.0611804 393 52407030 4368 54 179 10563
10.236053 -1.4735929 -2.0589929 369 52504300 4081 54 176 10552
10.249109 -1.5397205 -2.0635667 793 52601630 8831 54 269 10575
10.233659 -1.6016698 -2.0623734 888 52699210 9901 54 303 10569
10.197522 -1.660181 -2.0570045 911 52798530 10083 54 314 10542
10.169749 -1.7197796 -2.0534251 602 52894830 6643 54 252 10524
10.142595 -1.7792693 -2.0500445 383 52992770 4220 54 200 10507
10.118953 -1.8391917 -2.0474594 389 53089430 4257 54 167 10494
10.078583 -1.8958114 -2.0414937 356 53187730 3868 54 196 10464
10.094659 -1.9630412 -2.0472605 421 53285770 4617 54 188 10493
10.058402 -2.0201201 -2.0422893 404 53382580 4410 54 183 10468
10.044858 -2.0816004 -2.0420904 406 53481490 4441 54 184 10467
10.013687 -2.1393056 -2.038312 416 53578720 4522 54 207 10448
9.9908009 -2.1986022 -2.0363235 420 53675990 4568 54 201 10438
9.9589615 -2.2557502 -2.0325453 394 53773570 4246 54 214 10419
9.9325247 -2.3139243 -2.0299602 415 53872030 4462 54 221 10406
9.925765 -2.3766513 -2.0315509 436 53969190 4710 54 201 10414
9.8910093 -2.4325953 -2.027375 454 54067040 4874 54 198 10393
9.8730469 -2.4925199 -2.0267785 448 54164710 4817 54 202 10390
9.8547211 -2.5523157 -2.0261819 471 54262040 5065 54 183 10387
9.8426638 -2.6137412 -2.0269773 527 54360030 5671 54 202 10391
9.8226576 -2.6730561 -2.0261819 487 54457210 5224 54 210 10387
9.7881346 -2.7282774 -2.0224037 449 54556170 4797 54 199 10368
9.7712097 -2.788285 -2.0224037 444 54653280 4745 54 178 10368
9.7510948 -2.8473635 -2.0218072 487 54750610 5201 54 217 10365
9.7146597 -2.9015326 -2.0178299 449 54847540 4775 54 208 10345
9.6741781 -2.9542172 -2.0130575 465 54945730 4945 54 206 10321
9.6586752 -3.0143969 -2.013654 465 55043210 4947 54 218 10324
9.6484013 -3.0762839 -2.0154438 515 55140070 5491 54 204 10333
9.6097746 -3.129056 -2.0112679 501 55237350 5316 54 232 10312
9.5690041 -3.1808519 -2.0066941 508 55334160 5359 54 202 10289
9.5455942 -3.2382469 -2.0058987 475 55431930 4987 54 179 10285
9.5449944 -3.3034873 -2.0100746 448 55529480 4742 54 186 10306
9.543952 -3.3688419 -2.0142505 497 55628640 5279 54 226 10327
9.5452328 -3.4353034 -2.0190232 484 55725350 5163 54 237 10351
9.4972916 -3.4840198 -2.0132563 490 55824210 5190 54 222 10322
9.4766531 -3.5425715 -2.0134552 497 55920870 5275 54 228 10323
9.4593172 -3.6023965 -2.0144496 470 56017630 5002 54 242 10328
9.428812 -3.6571805 -2.0126598 454 56116090 4806 54 190 10319
9.3870525 -3.7074063 -2.0084839 467 56212950 4942 54 227 10298
9.3441229 -3.756892 -2.0041091 496 56311710 5197 54 219 10276
9.3027544 -3.8067329 -2.0001318 523 56408050 5459 54 228 10256
9.2213182 -3.8396335 -1.9874052 581 56506510 5995 54 225 10192
9.1434402 -3.8732078 -1.9754739 590 56604610 6046 54 236 10132
9.0465984 -3.8978286 -1.9593667 579 56702700 5827 54 255 10051
8.9884005 -3.9383194 -1.9518102 560 56799710 5593 54 244 10013
8.9291525 -3.9778445 -1.9440548 674 56897560 6692 54 265 9974
8.8322639 -3.9998119 -1.9279476 710 56994570 6930 54 220 9893
8.721199 -4.0141854 -1.9086587 720 57091940 6877 54 267 9796
8.5978661 -4.0215354 -1.8865858 797 57190090 7463 54 282 9685
8.4446793 -4.0132236 -1.8577518 807 57287210 7337 54 325 9540
8.3951836 -4.0530338 -1.8521839 737 57386020 6661 54 328 9512
8.3411188 -4.0902309 -1.8456217 746 57483090 6671 54 291 9479
8.2825279 -4.1247339 -1.8380653 729 57580710 6481 54 327 9441
8.1975918 -4.1454048 -1.8245431 776 57677590 6800 54 354 9373
8.1414871 -4.1799607 -1.8175832 759 57775980 6601 54 351 9338
8.1165552 -4.2302904 -1.817782 752 57872940 6548 54 373 9339
8.0705214 -4.2694731 -1.8132085 749 57970490 6490 54 360 9316
8.0199947 -4.305933 -1.8076404 803 58068360 6901 54 342 9288
7.9538355 -4.3334942 -1.7984931 754 58166260 6417 54 312 9242
7.8336058 -4.3305373 -1.7768179 795 58264870 6604 54 372 9133
7.7974839 -4.3732486 -1.7746305 808 58361630 6707 54 348 9122
7.7364306 -4.4016266 -1.7666764 728 58459510 5970 54 382 9082
7.699091 -4.4431353 -1.7642901 773 58556530 6342 54 353 9070
7.654767 -4.480392 -1.760313 785 58655490 6412 54 362 9050
7.6035342 -4.5132704 -1.7547451 828 58751740 6723 54 339 9022
7.5236382 -4.5285072 -1.7424161 789 58850150 6311 54 328 8960
7.4823256 -4.5664177 -1.7392344 863 58948020 6880 54 330 8944
7.4441648 -4.6060548 -1.7368481 807 59045820 6431 54 345 8932
7.3808928 -4.6297736 -1.7284962 820 59143500 6462 54 379 8890
7.3680592 -4.6849651 -1.7322745 777 59239390 6146 54 314 8909
7.2913947 -4.699295 -1.7207409 783 59337430 6107 54 387 8851
7.2451925 -4.7326913 -1.716565 797 59435390 6200 54 317 8830
7.2135653 -4.775435 -1.7159684 817 59533520 6352 54 311 8827
7.167037 -4.8081412 -1.7117925 813 59629960 6275 54 329 8806
7.0960641 -4.8239288 -1.7016509 789 59729240 6027 54 303 8755
7.0485749 -4.8551483 -1.697276 816 59826420 6194 54 317 8733
7.0146332 -4.8955021 -1.6962818 834 59924000 6340 54 299 8728
6.951654 -4.9152541 -1.6881287 814 60022040 6129 54 323 8687
6.9476562 -4.9766483 -1.6946909 782 60119520 5932 54 328 8720
6.8686028 -4.9840765 -1.6825608 806 60217240 6023 54 309 8659
6.7968283 -4.9959464 -1.6722203 815 60313550 6016 54 329 8607
6.7157354 -5.0001016 -1.6594937 793 60412200 5756 54 383 8543
6.6700616 -5.0300035 -1.6557153 787 60509840 5710 54 369 8524
6.5900044 -5.0333605 -1.6431875 831 60606240 5931 54 408 8461
6.5194616 -5.0431209 -1.6330459 813 60704650 5719 54 400 8410
6.4745078 -5.0721502 -1.6294665 857 60802020 6020 54 372 8392
6.4010363 -5.0782824 -1.6185296 852 60900980 5899 54 368 8337
6.3865647 -5.1309657 -1.6229043 800 60997030 5574 54 362 8359
6.3580022 -5.1725302 -1.6236998 772 61096400 5391 54 374 8363
6.3185802 -5.205214 -1.6217113 762 61193830 5300 54 383 8353
6.2669549 -5.2275648 -1.616541 786 61291610 5430 54 343 8327
6.2093043 -5.2444201 -1.60978 807 61388520 5545 54 322 8293
6.1770086 -5.2824211 -1.60978 811 61486930 5566 54 317 8293
6.1444798 -5.3202229 -1.60978 828 61583440 5680 54 360 8293
6.1043501 -5.3513646 -1.6077914 788 61680820 5393 54 336 8283
6.0538082 -5.3731065 -1.6030189 850 61779410 5770 54 350 8259
5.9864635 -5.3793654 -1.5936726 807 61876590 5435 54 346 8212
5.8953476 -5.3632383 -1.5777643 787 61974880 5200 54 310 8132
5.8457479 -5.3840408 -1.5731907 813 62071490 5319 54 356 8109
5.8090181 -5.4164667 -1.5721964 844 62169590 5520 54 390 8104
5.7329125 -5.4116459 -1.5602651 834 62265830 5384 54 325 8044
5.6740918 -5.4223461 -1.5531063 838 62362390 5357 54 319 8008
5.6252174 -5.4420691 -1.5487314 848 62460520 5396 54 338 7986
5.5364051 -5.4223108 -1.5330219 782 62558110 4875 54 386 7907
5.4981585 -5.4513497 -1.5316299 851 62656000 5298 54 358 7900
5.4486966 -5.4690156 -1.5270563 794 62754050 4913 54 372 7877
5.4006004 -5.4876771 -1.5228803 820 62851530 5048 54 365 7856
5.3374519 -5.4904957 -1.5143296 868 62950340 5289 54 283 7813
5.2778668 -5.4962811 -1.5067731 876 63047710 5282 54 375 7775
5.2433686 -5.5278511 -1.5065743 817 63146160 4925 54 354 7774
5.2060013 -5.556344 -1.5055799 873 63243750 5251 54 236 7769
5.1658187 -5.5817099 -1.5037903 892 63341180 5351 54 286 7760
5.080555 -5.5576067 -1.4884784 812 63438650 4773 54 390 7683
5.0424175 -5.5843115 -1.4872854 846 63536630 4968 54 340 7677
4.9950113 -5.6005187 -1.4833082 847 63636110 4941 54 384 7657
4.935287 -5.6023831 -1.4755529 819 63734100 4748 54 333 7618
4.8911686 -5.6214705 -1.4725701 821 63832300 4730 54 333 7603
4.8342271 -5.6253619 -1.4656101 811 63929820 4633 54 355 7568
4.7939115 -5.6481938 -1.4638205 858 64028230 4886 54 339 7559
4.7623129 -5.6812577 -1.4648148 857 64126230 4892 54 329 7564
4.6973643 -5.6741371 -1.4552697 883 64223600 4972 54 337 7516
4.631443 -5.6649175 -1.445327 860 64321280 4783 54 349 7466
4.5682759 -5.658154 -1.4361796 904 64418090 4966 54 356 7420
4.5188084 -5.6676874 -1.4314071 831 64517370 4535 54 323 7396
4.474247 -5.6829877 -1.4282255 962 64614380 5232 54 387 7380
4.4284649 -5.6964078 -1.4246461 888 64711560 4805 54 279 7362
4.3868647 -5.714922 -1.4224586 881 64810570 4756 54 338 7351
4.3304043 -5.7136145 -1.4152999 871 64908660 4650 54 341 7315
4.2794104 -5.7188926 -1.4099308 881 65007470 4675 54 325 7288
4.2279334 -5.7229724 -1.4043629 848 65104280 4461 54 289 7260
4.1673274 -5.7139678 -1.3956133 906 65201240 4713 54 337 7216
4.1167274 -5.717957 -1.3902442 867 65300670 4474 54 377 7189
4.0662355 -5.7215409 -1.3848752 868 65397030 4442 54 345 7162
4.0276756 -5.7415695 -1.383682 843 65493890 4306 54 340 7156
3.9761906 -5.7428088 -1.3779151 864 65592750 4369 54 330 7127
3.9425373 -5.7695255 -1.3785118 844 65690540 4275 54 346 7130
3.9092538 -5.7968578 -1.3793072 859 65788320 4367 54 334 7134
3.8567789 -5.795444 -1.3731427 860 65886060 4330 54 326 7103
3.7931719 -5.7764025 -1.3628023 871 65983070 4322 54 305 7051
3.742202 -5.7757168 -1.3570354 869 66081690 4269 54 367 7022
3.6934955 -5.7779269 -1.3520641 876 66177930 4279 54 343 6997
3.659019 -5.8021388 -1.3524618 876 66276320 4281 54 350 6999
3.6145477 -5.8103347 -1.3490813 909 66373550 4421 54 333 6982
3.5752401 -5.8265572 -1.3476893 916 66470630 4443 54 319 6975
3.5125268 -5.8039484 -1.33715 868 66567940 4148 54 390 6922
3.4708207 -5.8152933 -1.3347636 837 66666650 3988 54 330 6910
3.4350734 -5.8364801 -1.3347636 853 66763210 4053 54 354 6910
3.4095273 -5.8752475 -1.3389397 845 66860890 4049 54 374 6931
3.3485904 -5.8526759 -1.3287981 910 66957250 4294 54 327 6880
3.3130975 -5.8739657 -1.3289969 883 67055910 4168 54 319 6881
3.2703257 -5.8821926 -1.326213 873 67153680 4110 54 386 6867
3.2304037 -5.8952727 -1.3246222 917 67249730 4309 54 343 6859
3.1951017 -5.916708 -1.3250198 929 67348390 4360 54 322 6861
3.1564353 -5.9318752 -1.3240255 890 67445200 4176 54 301 6856
3.1181581 -5.9476595 -1.3232301 924 67543140 4325 54 308 6852
3.0753088 -5.9544897 -1.3204461 906 67642000 4232 54 318 6838
3.0218277 -5.9400554 -1.3128897 894 67739380 4122 54 307 6800
2.9774208 -5.9427137 -1.3093103 874 67836440 4011 54 334 6782
2.9330952 -5.9450512 -1.3057309 865 67934850 3949 54 334 6764
2.8832862 -5.9356098 -1.2995664 807 68031960 3655 54 337 6733
2.8468118 -5.9531894 -1.2995664 871 68128370 3938 54 366 6733
2.7835166 -5.9137964 -1.2868397 844 68227900 3740 54 355 6669
2.7566526 -5.9512167 -1.2914133 806 68326190 3596 54 358 6692
2.7233367 -5.9751534 -1.2930042 855 68423420 3825 54 357 6700
2.6866226 -5.9917512 -1.2930042 836 68521910 3750 54 318 6700
2.6379421 -5.9812226 -1.2870386 833 68619910 3700 54 360 6670
2.5984621 -5.9910026 -1.2856466 837 68716620 3707 54 338 6663
2.5597308 -6.0023265 -1.2846522 844 68814710 3728 54 332 6658
2.5137584 -5.9962282 -1.2798798 849 68912090 3723 54 349 6634
2.4608634 -5.9725766 -1.271329 858 69009560 3715 54 326 6591
2.4245379 -5.9884725 -1.2715279 847 69108130 3663 54 327 6592
2.3812275 -5.986845 -1.2679485 843 69204890 3635 54 352 6574
2.3455179 -6.0040817 -1.268545 852 69302260 3674 54 298 6577
2.3107395 -6.0238504 -1.2697382 864 69401990 3728 54 291 6583
2.2809882 -6.0571756 -1.2739141 876 69499220 3805 54 285 6604
2.2515941 -6.0921998 -1.2784878 853 69596280 3729 54 324 6627
2.2108293 -6.0966878 -1.2764993 841 69694990 3670 54 335 6617
2.1799486 -6.1286049 -1.2804763 822 69792260 3618 54 295 6637
2.131005 -6.109479 -1.2735164 880 69889790 3823 54 325 6602
2.0798419 -6.0825653 -1.2649657 816 69987990 3496 54 295 6559
2.0536919 -6.128665 -1.2721244 846 70085210 3669 54 285 6595
2.0022912 -6.0992498 -1.263176 801 70183210 3425 54 309 6550
1.9633293 -6.1067562 -1.2621816 853 70282170 3640 54 259 6545
1.9284704 -6.1271009 -1.2639714 837 70379590 3589 54 300 6554
1.8922815 -6.1435018 -1.2649657 852 70476820 3655 54 291 6559
1.8486118 -6.1352916 -1.2607898 852 70573780 3629 54 342 6538
1.793757 -6.0882349 -1.2484608 783 70672690 3271 54 358 6476
1.7628762 -6.1217284 -1.2532332 823 70770170 3470 54 324 6500
1.7130699 -6.0890341 -1.2440859 822 70867450 3420 54 338 6454
1.6829466 -6.1258907 -1.2496538 862 70966110 3613 54 352 6482
1.6524351 -6.1626058 -1.2552217 865 71062720 3658 54 324 6510
1.6128546 -6.1659923 -1.2538298 796 71159930 3363 54 323 6503
1.5696615 -6.1548805 -1.249455 783 71257870 3277 54 315 6481
1.5318663 -6.1643963 -1.249455 827 71354950 3461 54 355 6481
1.484561 -6.1346259 -1.2413019 777 71453190 3212 54 299 6440
1.4426223 -6.125495 -1.2375237 767 71550300 3158 54 355 6421
1.4017272 -6.1199021 -1.2345408 863 71648100 3530 54 321 6406
1.3628719 -6.1226482 -1.2333478 827 71745620 3375 54 346 6400
1.3335626 -6.1692114 -1.2413019 754 71842580 3114 54 364 6440
1.2974949 -6.1859102 -1.2430916 814 71940280 3377 54 343 6449
1.2550218 -6.1716666 -1.238518 773 72038420 3184 54 327 6426
1.2129619 -6.1580968 -1.2341431 816 72135480 3332 54 304 6404
1.1534966 -6.051826 -1.2106783 855 72233740 3367 54 339 6286
1.1195389 -6.0761385 -1.2142577 823 72330950 3263 54 343 6304
1.0976889 -6.1697316 -1.2321546 760 72428850 3095 54 341 6394
1.0556669 -6.1522031 -1.2271832 795 72526120 3213 54 328 6369
1.016619 -6.1508298 -1.2255924 787 72622980 3180 54 355 6361
0.97762775 -6.1492085 -1.2240015 760 72721590 3057 54 302 6353
0.93751085 -6.1395907 -1.22082 842 72818700 3376 54 359 6337
0.90180981 -6.1588035 -1.2236038 814 72915780 3276 54 309 6351
0.86549997 -6.1748967 -1.2257912 844 73013260 3404 54 334 6362
0.82447237 -6.1567783 -1.2210188 851 73110370 3411 54 325 6338
0.78667957 -6.1617217 -1.2210188 742 73209400 2969 54 335 6338
0.7451933 -6.1362734 -1.2148542 747 73307420 2964 54 332 6307
0.70606899 -6.1280737 -1.2122692 729 73404970 2880 54 342 6294
0.66377991 -6.0894237 -1.2035196 727 73500860 2828 54 347 6250
